# .PCD v0.7 - Point Cloud Data file format
VERSION 0.7
FIELDS x y z rgba
SIZE 4 4 4 4
TYPE F F F U
COUNT 1 1 1 1
WIDTH 1103
HEIGHT 1
VIEWPOINT 0 0 0 1 0 0 0
POINTS 1103
DATA ascii
0.085595243 0.15407144 0.71900004 4287168123
0.086964764 0.15407144 0.71900004 4286971522
0.088334292 0.15407144 0.71900004 4287495817
0.090202861 0.15492858 0.72300005 4288020098
0.091580003 0.15492858 0.72300005 4287889019
0.092957146 0.15492858 0.72300005 4287757939
0.093812384 0.15407144 0.71900004 4287889004
0.095181912 0.15407144 0.71900004 4288020077
0.095074289 0.15171428 0.708 4288020079
0.096422859 0.15171428 0.708 4288020076
0.098185718 0.15235715 0.71100003 4288020073
0.099540003 0.15235715 0.71100003 4288020074
0.10089429 0.15235715 0.71100003 4287889004
0.10224857 0.15235715 0.71100003 4287823467
0.10360286 0.15235715 0.71100003 4287626858
0.10658097 0.1547143 0.72200006 4287430254
0.1079562 0.1547143 0.72200006 4287626098
0.10857429 0.15364285 0.71700001 4287823474
0.10994 0.15364285 0.71700001 4288020083
0.11130571 0.15364285 0.71700001 4288282227
0.11251429 0.15342857 0.71600002 4287757939
0.11356001 0.15300001 0.71400005 4287233663
0.11492001 0.15300001 0.71400005 4287495563
0.11579143 0.15235715 0.71100003 4287757950
0.11698096 0.15214287 0.71000004 4287561330
0.118 0.15171428 0.708 4287430256
0.11918 0.1515 0.70700002 4287691887
0.12018572 0.15107144 0.70500004 4287954290
0.12152858 0.15107144 0.70500004 4288020085
0.39259523 0.32121432 1.4990001 4279507989
0.3954505 0.32121432 1.4990001 4279704344
0.39830571 0.32121432 1.4990001 4279900955
0.39768192 0.31842858 1.4860001 4279769887
0.39889523 0.31714284 1.48 4279638552
0.4017143 0.31714284 1.48 4279573008
0.40453333 0.31714284 1.48 4279574033
0.40542573 0.31564286 1.473 4279574289
0.40823144 0.31564286 1.473 4279574034
0.41103715 0.31564286 1.473 4279639571
0.41384286 0.31564286 1.473 4279705112
0.41495144 0.31435719 1.4670001 4279639837
0.22606383 0.1262143 0.58900005 4278519810
0.22718573 0.1262143 0.58900005 4278454019
0.22923811 0.12428573 0.58000004 4278453762
0.22994573 0.12407143 0.57900006 4278388482
0.23025049 0.12364287 0.57700002 4278388482
0.23094858 0.12342858 0.57600003 4278388739
0.23164287 0.1232143 0.57500005 4278453506
0.23233333 0.123 0.574 4278453250
0.23342668 0.123 0.574 4278453762
0.23411143 0.12278572 0.57300001 4278453505
0.23397145 0.12214287 0.57000005 4278453508
0.2342324 0.12171429 0.56800002 4278387975
0.23531428 0.12171429 0.56800002 4278389252
0.23598 0.1215 0.56700003 4278848002
0.23664191 0.12128573 0.56600004 4279306759
0.23772001 0.12128573 0.56600004 4278849292
0.23879811 0.12128573 0.56600004 4278456072
0.23945238 0.12107143 0.565 4278454020
0.23967715 0.12064286 0.56300002 4278454281
0.24074954 0.12064286 0.56300002 4278847759
0.24096288 0.1202143 0.56100005 4279306248
0.24116857 0.11978571 0.55900002 4279044353
0.24136667 0.11935715 0.55700004 4278782721
0.24242763 0.11935715 0.55700004 4278651394
0.24348859 0.11935715 0.55700004 4278520327
0.24411051 0.11914287 0.55600005 4278454796
0.24472857 0.11892857 0.55500001 4278454790
0.24578573 0.11892857 0.55500001 4278454785
0.24684285 0.11892857 0.55500001 4278454785
0.24790001 0.11892857 0.55500001 4278388993
0.24806 0.11850001 0.55300003 4278388993
0.24866286 0.11828572 0.55200005 4278389249
0.2497143 0.11828572 0.55200005 4278454529
0.25031143 0.11807143 0.551 4278453761
0.25090477 0.11785714 0.55000001 4278453505
0.25195241 0.11785714 0.55000001 4278453506
0.25299999 0.11785714 0.55000001 4278453761
0.25358573 0.11764286 0.54900002 4278519553
0.25416762 0.11742858 0.54800004 4278585601
0.25521144 0.11742858 0.54800004 4278519809
0.25625527 0.11742858 0.54800004 4278519553
0.25682953 0.1172143 0.54700005 4278454017
0.25787145 0.1172143 0.54700005 4278455297
0.25843999 0.117 0.546 4278455297
0.25948 0.117 0.546 4278520322
0.26004288 0.11678571 0.54500002 4278716420
0.26108095 0.11678571 0.54500002 4278913539
0.26211905 0.11678571 0.54500002 4278782465
0.26315713 0.11678571 0.54500002 4278651138
0.2637105 0.11657143 0.54400003 4278520066
0.26426002 0.11635716 0.54300004 4278389505
0.26480573 0.11614287 0.54200006 4278455297
0.2653476 0.11592857 0.54100001 4278586625
0.26588574 0.11571429 0.54000002 4278521857
0.26691428 0.11571429 0.54000002 4278519809
0.26794285 0.11571429 0.54000002 4278651394
0.26847333 0.11550001 0.53900003 4278848001
0.26900002 0.11528572 0.53800005 4278782977
0.26952285 0.11507142 0.537 4278782214
0.27054572 0.11507142 0.537 4279305483
0.27156857 0.11507142 0.537 4279896326
0.27208382 0.11485714 0.53600001 4279503362
0.27310476 0.11485714 0.53600001 4279110401
0.27412573 0.11485714 0.53600001 4278848769
0.27412 0.11442858 0.53400004 4278586625
0.27462193 0.11421429 0.53300005 4278586881
0.27563718 0.11421429 0.53300005 4278587137
0.27613333 0.114 0.53200001 4278587393
0.27714667 0.114 0.53200001 4278653186
0.27815998 0.114 0.53200001 4278587907
0.27812383 0.11357144 0.53000003 4278521603
0.27913335 0.11357144 0.53000003 4278782979
0.28014287 0.11357144 0.53000003 4279045126
0.28062192 0.11335715 0.52900004 4278848521
0.28162956 0.11335715 0.52900004 4278652180
0.28210285 0.11314286 0.528 4278652448
0.28310856 0.11314286 0.528 4278652441
0.2841143 0.11314286 0.528 4278848531
-0.41268572 0.19889523 0.92000002 4281738836
-0.41093335 0.19889523 0.92000002 4281540199
-0.40918097 0.19889523 0.92000002 4286160506
-0.40742859 0.19889523 0.92000002 4290758827
-0.40567622 0.19889523 0.92000002 4290430684
-0.4026067 0.19824667 0.91700006 4290111679
-0.40086001 0.19824667 0.91700006 4287411106
-0.40128955 0.19932762 0.92200005 4284710786
-0.39953333 0.19932762 0.92200005 4284572003
-0.37476477 0.19738191 0.91300005 4284178527
-0.37302575 0.19738191 0.91300005 4284047451
-0.37128666 0.19738191 0.91300005 4283849816
-0.37035713 0.19781429 0.91500002 4283717209
-0.36942002 0.19824667 0.91700006 4283585370
-0.36887619 0.19889523 0.92000002 4283453527
-0.36792192 0.19932762 0.92200005 4283321940
-0.36815146 0.20040858 0.92700005 4283190610
-0.36836192 0.20148954 0.93200004 4282993745
-0.36776668 0.2021381 0.93500006 4282797132
-0.36598575 0.2021381 0.93500006 4282468424
-0.3649838 0.20257048 0.93700004 4282138948
-0.36513716 0.20365143 0.94200003 4281941057
-0.36565718 0.20494859 0.94800007 4281742398
-0.36653811 0.20646191 0.95500004 4281479484
-0.36471906 0.20646191 0.95500004 4281216569
-0.36290002 0.20646191 0.95500004 4280954422
-0.36221525 0.20711049 0.95800006 4280758063
-0.36151904 0.20775905 0.96100003 4280758824
-0.35968858 0.20775905 0.96100003 4280759842
-0.35971999 0.20884 0.96600002 4280363037
-0.35676858 0.20819144 0.96300006 4280032284
-0.3549343 0.20819144 0.96300006 4279704347
-0.34833336 0.20538096 0.95000005 4279376402
-0.34652382 0.20538096 0.95000005 4278981386
-0.34471428 0.20538096 0.95000005 4278652949
-0.34398761 0.20602953 0.95300007 4278783009
-0.34109527 0.20538096 0.95000005 4278914071
-0.33928573 0.20538096 0.95000005 4278979854
-0.33747619 0.20538096 0.95000005 4279045387
-0.33566669 0.20538096 0.95000005 4279045897
-0.33385715 0.20538096 0.95000005 4279045644
-0.33204764 0.20538096 0.95000005 4279046159
-0.33128098 0.20602953 0.95300007 4279046671
-0.32946575 0.20602953 0.95300007 4279046416
-0.32833809 0.20646191 0.95500004 4279046409
-0.32754478 0.20711049 0.95800006 4279046403
-0.32674 0.20775905 0.96100003 4278981134
-0.32490951 0.20775905 0.96100003 4279046937
-0.33222002 0.21986574 1.0170001 4278979628
-0.33125716 0.22051431 1.0200001 4278653215
-0.32834575 0.21986574 1.0170001 4278653714
-0.32640859 0.21986574 1.0170001 4278720026
-0.32447147 0.21986574 1.0170001 4278851107
-0.32253432 0.21986574 1.0170001 4278982171
-0.32059714 0.21986574 1.0170001 4279047956
-0.31866002 0.21986574 1.0170001 4279113762
-0.3157886 0.21921715 1.0140001 4279506736
-0.31478575 0.21986574 1.0170001 4279837210
-0.3128486 0.21986574 1.0170001 4279769093
-0.31091145 0.21986574 1.0170001 4279700999
-0.30806285 0.21921715 1.0140001 4279309321
-0.3052257 0.21856858 1.011 4278917654
-0.30240002 0.21792001 1.008 4278785828
-0.30048001 0.21792001 1.008 4278654246
-0.29855999 0.21792001 1.008 4278783784
-0.29664001 0.21792001 1.008 4278979367
-0.29471999 0.21792001 1.008 4278650919
-0.29221907 0.21748763 1.006 4278321684
-0.29087999 0.21792001 1.008 4279501057
-0.28896001 0.21792001 1.008 4280681004
-0.28789428 0.21856858 1.011 4283387992
-0.28681716 0.21921715 1.0140001 4286099334
-0.28404287 0.21856858 1.011 4287411637
-0.28211716 0.21856858 1.011 4288789676
-0.28019145 0.21856858 1.011 4287404195
-0.27744001 0.21792001 1.008 4286025086
-0.27497333 0.21748763 1.006 4285035097
-0.27305716 0.21748763 1.006 4284044883
-0.27033237 0.21683905 1.003 4283914062
-0.26761904 0.21619047 1 4283783235
-0.26571429 0.21619047 1 4283717689
-0.26460093 0.21683905 1.003 4283652163
-0.076774284 0.14895524 0.68900001 4286512744
-0.075461902 0.14895524 0.68900001 4286512753
-0.073934287 0.14852285 0.68700004 4286578281
-0.072625719 0.14852285 0.68700004 4286447201
-0.071317144 0.14852285 0.68700004 4286381667
-0.070416197 0.14938763 0.69100004 4286447206
-0.069100007 0.14938763 0.69100004 4286447204
-0.06778381 0.14938763 0.69100004 4286512739
-0.065986671 0.14830668 0.68600005 4286578270
-0.065057144 0.14917144 0.69000006 4286512729
-0.063742861 0.14917144 0.69000006 4286512733
-0.062519051 0.14938763 0.69100004 4286578274
-0.061025716 0.14895524 0.68900001 4286643810
-0.059800003 0.14917144 0.69000006 4286643810
-0.058740001 0.14982 0.69300002 4286578299
-0.05742 0.14982 0.69300002 4286774932
-0.056180954 0.15003619 0.69400001 4286971517
-0.0549381 0.15025239 0.69500005 4286840422
-0.053614292 0.15025239 0.69500005 4286774894
-0.052290477 0.15025239 0.69500005 4286774903
-0.050966669 0.15025239 0.69500005 4286709358
-0.050285716 0.15219811 0.70400006 4286774885
-0.048944768 0.15219811 0.70400006 4286840425
-0.047671434 0.15241429 0.70500004 4286774894
-0.046459999 0.15284666 0.70700002 4286643819
-0.045177143 0.15306287 0.708 4286578280
-0.043766666 0.15284666 0.70700002 4286447207
-0.04242 0.15284666 0.70700002 4286709350
-0.041073337 0.15284666 0.70700002 4287037030
0.037033334 0.15284666 0.70700002 4286840410
0.038271431 0.15241429 0.70500004 4286905947
0.039558098 0.15219811 0.70400006 4286971499
0.040957142 0.15241429 0.70500004 4286905980
0.042300001 0.15241429 0.70500004 4286840442
0.04364286 0.15241429 0.70500004 4286971513
0.044985719 0.15241429 0.70500004 4287102584
0.04626286 0.15219811 0.70400006 4286840439
0.047536191 0.15198191 0.70300001 4286512763
0.048875239 0.15198191 0.70300001 4286840447
0.050214287 0.15198191 0.70300001 4287102581
0.051846668 0.15284666 0.70700002 4287102572
0.064328574 0.15371142 0.71100003 4287233651
0.065590478 0.15349525 0.71000004 4287037049
0.066942856 0.15349525 0.71000004 4286840422
0.06829524 0.15349525 0.71000004 4286971475
0.069451429 0.15306287 0.708 4287102559
0.070800006 0.15306287 0.708 4287102572
0.07235238 0.15349525 0.71000004 4287102576
0.072978094 0.15198191 0.70300001 4287102581
0.074528575 0.15241429 0.70500004 4287168115
0.075440958 0.15154953 0.70100003 4287233649
0.076995239 0.15198191 0.70300001 4287364724
0.078111432 0.15154953 0.70100003 4287561335
0.079446673 0.15154953 0.70100003 4287692403
0.080781907 0.15154953 0.70100003 4287561328
0.083288573 0.15371142 0.71100003 4287364724
0.084880956 0.15414383 0.71300006 4287233657
0.085997149 0.15371142 0.71100003 4287036797
0.087351426 0.15371142 0.71100003 4287364737
0.093420953 0.15479238 0.71600002 4287626845
0.093593337 0.15284666 0.70700002 4287823463
0.095342867 0.15349525 0.71000004 4287889010
0.096286669 0.15284666 0.70700002 4287954544
0.097633332 0.15284666 0.70700002 4288020078
0.099540003 0.15371142 0.71100003 4288020073
0.10089429 0.15371142 0.71100003 4287954533
0.10224857 0.15371142 0.71100003 4287954531
0.10360286 0.15371142 0.71100003 4287954530
0.1079562 0.15608953 0.72200006 4287954558
0.10857429 0.15500857 0.71700001 4288020093
0.10978667 0.15479238 0.71600002 4288085629
0.11084 0.15436 0.71400005 4288150402
0.11204287 0.15414383 0.71300006 4287889032
0.11308286 0.15371142 0.71100003 4287692421
0.11443715 0.15371142 0.71100003 4287823490
0.11530285 0.15306287 0.708 4288020085
0.11665143 0.15306287 0.708 4288085609
0.11783334 0.15284666 0.70700002 4288216679
0.11884287 0.15241429 0.70500004 4288150885
0.12018572 0.15241429 0.70500004 4288150891
0.12152858 0.15241429 0.70500004 4288151153
0.12269716 0.15219811 0.70400006 4288216682
0.12386191 0.15198191 0.70300001 4288347748
0.12520096 0.15198191 0.70300001 4288478851
0.38117433 0.32406953 1.4990001 4278984211
0.38402954 0.32406953 1.4990001 4279180572
0.38507813 0.3225562 1.4920001 4279376918
0.38635999 0.32125905 1.4860001 4279376144
0.3891905 0.32125905 1.4860001 4279375375
0.39043808 0.31996191 1.48 4279441934
0.39325714 0.31996191 1.48 4279572750
0.3960762 0.31996191 1.48 4279507471
0.39700857 0.31844857 1.473 4279441677
0.39981431 0.31844857 1.473 4279638284
0.40261999 0.31844857 1.473 4279835661
0.40212288 0.31585431 1.4610001 4279704846
0.40490574 0.31585431 1.4610001 4279508500
0.40936288 0.31715146 1.4670001 4279639579
0.41215718 0.31715146 1.4670001 4279836187
0.22963333 0.12560667 0.58100003 4278454017
0.23034286 0.12539048 0.58000004 4278454274
0.23064953 0.12495811 0.57800001 4278520833
0.23054764 0.12430953 0.57500005 4278519809
0.23083715 0.12387714 0.57300001 4278519297
0.23192857 0.12387714 0.57300001 4278453761
0.23261335 0.12366096 0.57200003 4278453761
0.23370287 0.12366096 0.57200003 4278387969
0.23356095 0.12301237 0.56900001 4278387969
0.2342324 0.12279619 0.56800002 4278388225
0.23531428 0.12279619 0.56800002 4278389505
0.23598 0.12258 0.56700003 4278585601
0.23664191 0.12236382 0.56600004 4278847746
0.23729999 0.12214762 0.565 4278651396
0.23879811 0.12236382 0.56600004 4278455300
0.23945238 0.12214762 0.565 4278387973
0.23882574 0.12128286 0.56100005 4278388740
0.2398943 0.12128286 0.56100005 4278650628
0.23881526 0.12020192 0.55600005 4278912771
0.2398743 0.12020192 0.55600005 4278781698
0.24093336 0.12020192 0.55600005 4278652162
0.2419924 0.12020192 0.55600005 4278585858
0.2426143 0.11998571 0.55500001 4278520835
0.24367142 0.11998571 0.55500001 4278651396
0.24472857 0.11998571 0.55500001 4278782722
0.24578573 0.11998571 0.55500001 4278651649
0.24639811 0.11976953 0.55400002 4278520577
0.24700668 0.11955334 0.55300003 4278454785
0.24761146 0.11933715 0.55200005 4278389249
0.24821237 0.11912096 0.551 4278454529
0.2492619 0.11912096 0.551 4278519809
0.25031143 0.11912096 0.551 4278519553
0.25090477 0.11890477 0.55000001 4278454018
0.25149429 0.11868858 0.54900002 4278454019
0.25254002 0.11868858 0.54900002 4278388482
0.25312382 0.11847239 0.54800004 4278519809
0.25416762 0.11847239 0.54800004 4278651649
0.25474575 0.1182562 0.54700005 4278519809
0.25578764 0.1182562 0.54700005 4278454785
0.25635999 0.11804 0.546 4278455297
0.25739998 0.11804 0.546 4278455809
0.25843999 0.11804 0.546 4278455553
0.25900477 0.11782381 0.54500002 4278455300
0.26004288 0.11782381 0.54500002 4278520584
0.26108095 0.11782381 0.54500002 4278651653
0.26211905 0.11782381 0.54500002 4278586114
0.26315713 0.11782381 0.54500002 4278520835
0.2637105 0.11760762 0.54400003 4278455300
0.26426002 0.11739144 0.54300004 4278389762
0.26480573 0.11717525 0.54200006 4278455553
0.26485714 0.11674286 0.54000002 4278521345
0.26539335 0.11652667 0.53900003 4278521090
0.26642004 0.11652667 0.53900003 4278454786
0.2674467 0.11652667 0.53900003 4278782466
0.26797527 0.11631048 0.53800005 4279044610
0.2685 0.11609428 0.537 4278913794
0.26902097 0.1158781 0.53600001 4278782475
0.27004191 0.1158781 0.53600001 4279044629
0.27106285 0.1158781 0.53600001 4279372299
0.2715762 0.11566191 0.53500003 4279110658
0.27208576 0.11544573 0.53400004 4278915329
0.27259147 0.11522953 0.53300005 4278783745
0.27360669 0.11522953 0.53300005 4278587393
0.27462193 0.11522953 0.53300005 4278652417
0.27511999 0.11501333 0.53200001 4278653953
0.27613333 0.11501333 0.53200001 4278718977
0.27662572 0.11479715 0.53100002 4278721537
0.2771143 0.11458096 0.53000003 4278719233
0.27864859 0.11479715 0.53100002 4278719489
0.27966002 0.11479715 0.53100002 4279177474
0.2796143 0.11436477 0.52900004 4279635715
0.28009143 0.11414857 0.528 4279242244
0.28109714 0.11414857 0.528 4278914569
0.28156856 0.11393239 0.52700001 4278914574
0.28257239 0.11393239 0.52700001 4278980363
0.28357619 0.11393239 0.52700001 4279111689
-0.41093335 0.20064762 0.92000002 4283454333
-0.40918097 0.20064762 0.92000002 4287878312
-0.40742859 0.20064762 0.92000002 4292334007
-0.40567622 0.20064762 0.92000002 4290432710
-0.4026067 0.19999334 0.91700006 4288580499
-0.40086001 0.19999334 0.91700006 4284368993
-0.39911336 0.19999334 0.91700006 4280171607
-0.39953333 0.20108382 0.92200005 4281806926
-0.37476477 0.19912095 0.91300005 4284047454
-0.37302575 0.19912095 0.91300005 4283915869
-0.37128666 0.19912095 0.91300005 4283718747
-0.37035713 0.19955714 0.91500002 4283585625
-0.36942002 0.19999334 0.91700006 4283454039
-0.36967811 0.20108382 0.92200005 4283322452
-0.36792192 0.20108382 0.92200005 4283255889
-0.36735716 0.2017381 0.92500007 4283190350
-0.36757147 0.20282859 0.93000007 4282862668
-0.36658669 0.20326477 0.93200004 4282533962
-0.36598575 0.20391907 0.93500006 4282205256
-0.3649838 0.20435525 0.93700004 4281876035
-0.36630002 0.20610002 0.94500005 4281678399
-0.36642858 0.2071905 0.95000005 4281545531
-0.36653811 0.20828095 0.95500004 4281282871
-0.36586478 0.20893526 0.95800006 4281019443
-0.36404002 0.20893526 0.95800006 4280691759
-0.36334953 0.20958953 0.96100003 4280429610
-0.36227143 0.21002571 0.96300006 4280364069
-0.36155999 0.21068001 0.96600002 4280362787
-0.35860288 0.21002571 0.96300006 4280034081
-0.35676858 0.21002571 0.96300006 4279769886
-0.3549343 0.21002571 0.96300006 4279574042
-0.34652382 0.2071905 0.95000005 4278916623
-0.34471428 0.2071905 0.95000005 4278456340
-0.34290478 0.2071905 0.95000005 4278652441
-0.34037715 0.2067543 0.94800007 4278849042
-0.33928573 0.2071905 0.95000005 4278980363
-0.33747619 0.2071905 0.95000005 4279111433
-0.33566669 0.2071905 0.95000005 4279045894
-0.33385715 0.2071905 0.95000005 4278980108
-0.33204764 0.2071905 0.95000005 4278915602
-0.33128098 0.20784478 0.95300007 4278850067
-0.32946575 0.20784478 0.95300007 4278981908
-0.32833809 0.20828095 0.95500004 4279112977
-0.32651904 0.20828095 0.95500004 4278981902
-0.32674 0.20958953 0.96100003 4278850325
-0.32490951 0.20958953 0.96100003 4279046428
-0.33222002 0.22180288 1.0170001 4279307287
-0.33125716 0.22245716 1.0200001 4278520338
-0.32834575 0.22180288 1.0170001 4278387470
-0.32640859 0.22180288 1.0170001 4278256164
-0.32447147 0.22180288 1.0170001 4278321465
-0.32253432 0.22180288 1.0170001 4278387758
-0.32059714 0.22180288 1.0170001 4278585378
-0.31866002 0.22180288 1.0170001 4278849566
-0.3157886 0.22114858 1.0140001 4279113755
-0.31385717 0.22114858 1.0140001 4279376912
-0.3128486 0.22180288 1.0170001 4280033541
-0.31091145 0.22180288 1.0170001 4280689164
-0.30806285 0.22114858 1.0140001 4280099860
-0.3052257 0.2204943 1.011 4279574042
-0.30240002 0.21984001 1.008 4279048993
-0.30048001 0.21984001 1.008 4278523932
-0.29855999 0.21984001 1.008 4278981655
-0.29605144 0.21940382 1.006 4279438101
-0.29413524 0.21940382 1.006 4278848532
-0.29221907 0.21940382 1.006 4278256162
-0.29174572 0.2204943 1.011 4280680753
-0.29068002 0.22114858 1.0140001 4283122009
-0.28874856 0.22114858 1.0140001 4286488705
-0.28681716 0.22114858 1.0140001 4289836182
-0.28404287 0.2204943 1.011 4289574828
-0.28211716 0.2204943 1.011 4289372312
-0.28019145 0.2204943 1.011 4286744964
-0.27305716 0.21940382 1.006 4284242517
-0.27033237 0.21874954 1.003 4283980627
-0.26601332 0.21678667 0.99400002 4283717962
-0.26252571 0.21547811 0.98800004 4283652418
-0.25985241 0.21482383 0.98500007 4283652424
-0.2579762 0.21482383 0.98500007 4283652943
-0.088723809 0.14830476 0.68000001 4287168089
-0.08742857 0.14830476 0.68000001 4286774873
-0.086133331 0.14830476 0.68000001 4286447198
-0.0848381 0.14830476 0.68000001 4286381667
-0.077746667 0.14961334 0.68600005 4286316131
-0.076440006 0.14961334 0.68600005 4286381672
-0.075242862 0.14983144 0.68700004 4286447213
-0.073826671 0.14961334 0.68600005 4286512743
-0.072625719 0.14983144 0.68700004 4286250594
-0.071317144 0.14983144 0.68700004 4286053982
-0.070416197 0.15070382 0.69100004 4286185050
-0.069000006 0.15048572 0.69000006 4286316132
-0.067391433 0.14983144 0.68700004 4286316142
-0.065986671 0.14961334 0.68600005 4286381670
-0.065057144 0.15048572 0.69000006 4286185054
-0.063742861 0.15048572 0.69000006 4286053987
-0.062519051 0.15070382 0.69100004 4286250599
-0.061114289 0.15048572 0.69000006 4286447204
-0.05954 0.14983144 0.68700004 4286447202
-0.058740001 0.15114 0.69300002 4286512752
-0.057254288 0.15070382 0.69100004 4286512767
-0.056261908 0.15157621 0.69500005 4286512754
-0.0549381 0.15157621 0.69500005 4286578278
-0.053537142 0.15135808 0.69400001 4286643817
-0.052215237 0.15135808 0.69400001 4286643820
-0.050893333 0.15135808 0.69400001 4286643816
0.037033334 0.15419333 0.70700002 4286905956
0.038271431 0.15375715 0.70500004 4287037030
0.039614286 0.15375715 0.70500004 4287168111
0.040957142 0.15375715 0.70500004 4287037048
0.042300001 0.15375715 0.70500004 4286971511
0.04364286 0.15375715 0.70500004 4287168118
0.044921909 0.15353906 0.70400006 4287364721
0.046065718 0.15288477 0.70100003 4287037036
0.047536191 0.15332095 0.70300001 4286774901
0.048875239 0.15332095 0.70300001 4286971518
0.050214287 0.15332095 0.70300001 4287233656
0.065405719 0.15441144 0.708 4286905972
0.066754289 0.15441144 0.708 4286709353
0.068102859 0.15441144 0.708 4286840415
0.069353335 0.15419333 0.70700002 4286971493
0.070699997 0.15419333 0.70700002 4286905963
0.071842864 0.15375715 0.70500004 4286905966
0.072978094 0.15332095 0.70300001 4286840434
0.074422859 0.15353906 0.70400006 4286840440
0.075440958 0.15288477 0.70100003 4287037055
0.076776192 0.15288477 0.70100003 4287233658
0.078111432 0.15288477 0.70100003 4287364726
0.079446673 0.15288477 0.70100003 4287495798
0.080781907 0.15288477 0.70100003 4287430263
0.083171427 0.15484762 0.71000004 4287364725
0.084523819 0.15484762 0.71000004 4287233652
0.085876197 0.15484762 0.71000004 4287168119
0.087228574 0.15484762 0.71000004 4287233658
0.093420953 0.1561562 0.71600002 4287430242
0.093593337 0.15419333 0.70700002 4287626858
0.094939999 0.15419333 0.70700002 4287757939
0.096286669 0.15419333 0.70700002 4287954545
0.097633332 0.15419333 0.70700002 4288020079
0.10902 0.15506572 0.71100003 4288085626
0.11037429 0.15506572 0.71100003 4288020090
0.11125714 0.15441144 0.708 4288085626
0.11260571 0.15441144 0.708 4288216702
0.11347143 0.15375715 0.70500004 4288216707
0.11481429 0.15375715 0.70500004 4288282231
0.11615714 0.15375715 0.70500004 4288675435
0.11750001 0.15375715 0.70500004 4289068659
0.11867429 0.15353906 0.70400006 4288675450
0.12001524 0.15353906 0.70400006 4288347766
0.1213562 0.15353906 0.70400006 4288347762
0.12252286 0.15332095 0.70300001 4288347765
0.12350953 0.15288477 0.70100003 4288609913
0.12484477 0.15288477 0.70100003 4288937612
0.12618001 0.15288477 0.70100003 4288675487
0.37831905 0.32692477 1.4990001 4278785802
0.38117433 0.32692477 1.4990001 4278655244
0.38223621 0.32539812 1.4920001 4278655758
0.38507813 0.32539812 1.4920001 4278720782
0.38635999 0.32408953 1.4860001 4278982415
0.38761905 0.32278097 1.48 4279244814
0.39043808 0.32278097 1.48 4279245326
0.39325714 0.32278097 1.48 4279310859
0.39420289 0.32125428 1.473 4279311112
0.39539146 0.31994572 1.4670001 4279310602
0.39818573 0.31994572 1.4670001 4279703564
0.39934003 0.31863716 1.4610001 4280162574
0.40047145 0.31732857 1.455 4279835152
0.40324286 0.31732857 1.455 4279507995
0.40936288 0.31994572 1.4670001 4279704870
0.41215718 0.31994572 1.4670001 4279967008
0.22963333 0.12671334 0.58100003 4278519299
0.23034286 0.12649524 0.58000004 4278585605
0.23064953 0.12605904 0.57800001 4278650883
0.23014668 0.12518667 0.574 4278585345
0.23083715 0.12496858 0.57300001 4278585345
0.23192857 0.12496858 0.57300001 4278520065
0.23302001 0.12496858 0.57300001 4278454273
0.23370287 0.12475048 0.57200003 4278388481
0.23356095 0.12409618 0.56900001 4278322945
0.2342324 0.1238781 0.56800002 4278323201
0.23531428 0.1238781 0.56800002 4278388737
0.23598 0.12366 0.56700003 4278388993
0.23706001 0.12366 0.56700003 4278388993
0.23772001 0.12344192 0.56600004 4278388994
0.23879811 0.12344192 0.56600004 4278454787
0.23987621 0.12344192 0.56600004 4278387715
0.2384 0.12213334 0.56 4278322948
0.23861143 0.12169715 0.55800003 4278388484
0.23881526 0.12126096 0.55600005 4278519304
0.23944287 0.12104286 0.55500001 4278519307
0.24093336 0.12126096 0.55600005 4278519815
0.2419924 0.12126096 0.55600005 4278520323
0.2426143 0.12104286 0.55500001 4278520323
0.24367142 0.12104286 0.55500001 4278782467
0.24428762 0.12082476 0.55400002 4279110147
0.24534287 0.12082476 0.55400002 4278848259
0.2455086 0.12038858 0.55200005 4278651394
0.24611333 0.12017047 0.551 4278520322
0.24716285 0.12017047 0.551 4278454529
0.24821237 0.12017047 0.551 4278521089
0.24880952 0.11995238 0.55000001 4278651137
0.24985714 0.11995238 0.55000001 4278585089
0.25044858 0.11973429 0.54900002 4278519553
0.2510362 0.1195162 0.54800004 4278454530
0.25208002 0.1195162 0.54800004 4278388993
0.25312382 0.1195162 0.54800004 4278520321
0.25370383 0.1192981 0.54700005 4278716673
0.25427997 0.11908 0.546 4278519809
0.25485238 0.11886191 0.54500002 4278388993
0.25589046 0.11886191 0.54500002 4278455809
0.25692856 0.11886191 0.54500002 4278521345
0.2579667 0.11886191 0.54500002 4278456577
0.25900477 0.11886191 0.54500002 4278389763
0.25956571 0.11864381 0.54400003 4278389253
0.26060191 0.11864381 0.54400003 4278389507
0.26211905 0.11886191 0.54500002 4278389761
0.2626743 0.11864381 0.54400003 4278455298
0.26322573 0.11842572 0.54300004 4278389762
0.26377335 0.11820763 0.54200006 4278389762
0.26431713 0.11798953 0.54100001 4278456833
0.26485714 0.11777143 0.54000002 4278520839
0.26539335 0.11755334 0.53900003 4278455310
0.26592574 0.11733525 0.53800005 4278454536
0.26695052 0.11733525 0.53800005 4278848002
0.26747715 0.11711714 0.537 4279307010
0.26799998 0.11689905 0.53600001 4279045122
0.26902097 0.11689905 0.53600001 4278782215
0.27004191 0.11689905 0.53600001 4278782220
0.27106285 0.11689905 0.53600001 4278848007
0.2715762 0.11668096 0.53500003 4278783747
0.27208576 0.11646286 0.53400004 4278783490
0.27310288 0.11646286 0.53400004 4278717953
0.27360669 0.11624478 0.53300005 4278652417
0.27462193 0.11624478 0.53300005 4278718209
0.27511999 0.11602667 0.53200001 4278784257
0.27613333 0.11602667 0.53200001 4278785025
0.27662572 0.11580858 0.53100002 4278850561
0.2771143 0.11559048 0.53000003 4278850818
0.27812383 0.11559048 0.53000003 4278916102
0.27860668 0.11537239 0.52900004 4279571211
0.2796143 0.11537239 0.52900004 4280291335
0.28009143 0.11515429 0.528 4279701252
0.28056479 0.11493619 0.52700001 4279177227
0.28156856 0.11493619 0.52700001 4279243026
0.28257239 0.11493619 0.52700001 4279373584
0.28357619 0.11493619 0.52700001 4279374351
-0.40918097 0.2024 0.92000002 4289059799
-0.40610003 0.20174001 0.91700006 4290440131
-0.40435335 0.20174001 0.91700006 4286946224
-0.4026067 0.20174001 0.91700006 4283447400
-0.40086001 0.20174001 0.91700006 4282332960
-0.39911336 0.20174001 0.91700006 4281275180
-0.37476477 0.20086001 0.91300005 4284046942
-0.37302575 0.20086001 0.91300005 4283914334
-0.37128666 0.20086001 0.91300005 4283651423
-0.37035713 0.20130001 0.91500002 4283454041
-0.36861429 0.20130001 0.91500002 4283388500
-0.36887619 0.2024 0.92000002 4283256913
-0.36792192 0.20284 0.92200005 4283060047
-0.36735716 0.20350002 0.92500007 4282928715
-0.36638573 0.20394 0.92700005 4282665031
-0.36580002 0.20460002 0.93000007 4282401351
-0.36598575 0.20570001 0.93500006 4282073416
-0.3649838 0.20614 0.93700004 4281809731
-0.36630002 0.20790002 0.94500005 4281546558
-0.36642858 0.20900001 0.95000005 4281217592
-0.36653811 0.21010001 0.95500004 4280954418
-0.36471906 0.21010001 0.95500004 4280691245
-0.36404002 0.21076001 0.95800006 4280494121
-0.36221525 0.21076001 0.95800006 4280231461
-0.36151904 0.21142001 0.96100003 4280164642
-0.36043715 0.21186002 0.96300006 4280032548
-0.35860288 0.21186002 0.96300006 4279901222
-0.35676858 0.21186002 0.96300006 4279704352
-0.35014287 0.20900001 0.95000005 4279507226
-0.34833336 0.20900001 0.95000005 4279375895
-0.34652382 0.20900001 0.95000005 4279047445
-0.34471428 0.20900001 0.95000005 4278784275
-0.34290478 0.20900001 0.95000005 4278849041
-0.34037715 0.20856002 0.94800007 4278915085
-0.33928573 0.20900001 0.95000005 4278980361
-0.33747619 0.20900001 0.95000005 4279111430
-0.33566669 0.20900001 0.95000005 4279045892
-0.33385715 0.20900001 0.95000005 4279045900
-0.33204764 0.20900001 0.95000005 4279046165
-0.33128098 0.20966002 0.95300007 4278981399
-0.32946575 0.20966002 0.95300007 4279178265
-0.32765049 0.20966002 0.95300007 4279309081
-0.32651904 0.21010001 0.95500004 4278916121
-0.32470003 0.21010001 0.95500004 4278588956
-0.33028287 0.22374001 1.0170001 4282058758
-0.32834575 0.22374001 1.0170001 4282451467
-0.32640859 0.22374001 1.0170001 4282909741
-0.32447147 0.22374001 1.0170001 4283183184
-0.32253432 0.22374001 1.0170001 4283456832
-0.32059714 0.22374001 1.0170001 4283390769
-0.31772003 0.22308001 1.0140001 4283390491
-0.3157886 0.22308001 1.0140001 4282723846
-0.31385717 0.22308001 1.0140001 4282061829
-0.3128486 0.22374001 1.0170001 4280751365
-0.30999431 0.22308001 1.0140001 4279506450
-0.30806285 0.22308001 1.0140001 4279180320
-0.3052257 0.22242001 1.011 4278919711
-0.30240002 0.22176 1.008 4278853150
-0.30048001 0.22176 1.008 4278786834
-0.29796764 0.22132002 1.006 4278784262
-0.29605144 0.22132002 1.006 4278848515
-0.29413524 0.22132002 1.006 4279568129
-0.29221907 0.22132002 1.006 4280288049
-0.29087999 0.22176 1.008 4282793057
-0.28896001 0.22176 1.008 4285301126
-0.28874856 0.22308001 1.0140001 4287341995
-0.28681716 0.22308001 1.0140001 4289378983
-0.26790667 0.21867999 0.99400002 4283849560
-0.26521048 0.21802002 0.99100006 4283456082
-0.26252571 0.21736 0.98800004 4283587148
-0.26064381 0.21736 0.98800004 4283652686
-0.25876191 0.21736 0.98800004 4283652688
-0.25687999 0.21736 0.98800004 4283652179
-0.25499812 0.21736 0.98800004 4283651926
-0.14144 0.14784001 0.67200005 4286053976
-0.14016001 0.14784001 0.67200005 4286053980
-0.13888 0.14784001 0.67200005 4286053987
-0.13800952 0.14827999 0.67400002 4286053995
-0.13672572 0.14827999 0.67400002 4286053981
-0.090019047 0.1496 0.68000001 4286316119
-0.088462859 0.14916001 0.67800003 4286709339
-0.086914293 0.14872001 0.67600006 4286512736
-0.085626669 0.14872001 0.67600006 4286316130
-0.084339052 0.14872001 0.67600006 4286316132
-0.083051436 0.14872001 0.67600006 4286316143
-0.081763811 0.14872001 0.67600006 4286447227
-0.080476195 0.14872001 0.67600006 4286578286
-0.077406667 0.15026 0.68300003 4286316134
-0.076217145 0.15048 0.68400002 4286316135
-0.075133339 0.15092002 0.68600005 4286381673
-0.073826671 0.15092002 0.68600005 4286447206
-0.072625719 0.15114 0.68700004 4286316131
-0.071317144 0.15114 0.68700004 4286250585
-0.070212379 0.15157999 0.68900001 4286250575
-0.069000006 0.15180001 0.69000006 4286316132
-0.067685723 0.15180001 0.69000006 4286316154
-0.066082858 0.15114 0.68700004 4286381679
-0.065151431 0.15202002 0.69100004 4286316132
-0.063742861 0.15180001 0.69000006 4286250600
-0.062519051 0.15202002 0.69100004 4286316141
-0.061114289 0.15180001 0.69000006 4286381671
-0.059800003 0.15180001 0.69000006 4286447202
-0.058570478 0.15202002 0.69100004 4286578278
-0.057254288 0.15202002 0.69100004 4286512747
-0.056100003 0.15246001 0.69300002 4286512744
-0.05485905 0.15267999 0.69400001 4286578278
-0.053228576 0.15180001 0.69000006 4286643812
-0.05191429 0.15180001 0.69000006 4286643810
-0.050893333 0.15267999 0.69400001 4286643811
0.038271431 0.1551 0.70500004 4286971506
0.039614286 0.1551 0.70500004 4287037043
0.042300001 0.1551 0.70500004 4286840435
0.04364286 0.1551 0.70500004 4286905971
0.044921909 0.15488 0.70400006 4286971498
0.045868572 0.15356 0.69800001 4286840162
0.04713048 0.15334 0.69700003 4286774640
0.048319053 0.15290001 0.69500005 4286971518
0.049642861 0.15290001 0.69500005 4287168123
0.050966669 0.15290001 0.69500005 4287102584
0.065405719 0.15576001 0.708 4286971503
0.066754289 0.15576001 0.708 4286840429
0.06829524 0.15620001 0.71000004 4286905963
0.069451429 0.15576001 0.708 4286971243
0.070699997 0.15554 0.70700002 4287037035
0.07235238 0.15620001 0.71000004 4287102573
0.072978094 0.15466 0.70300001 4287037039
0.07431715 0.15466 0.70300001 4287037054
0.075333342 0.15400001 0.70000005 4287168141
0.076666676 0.15400001 0.70000005 4287299201
0.078000009 0.15400001 0.70000005 4287495797
0.079333335 0.15400001 0.70000005 4287692409
0.080781907 0.15422001 0.70100003 4287561342
0.082117148 0.15422001 0.70100003 4287495798
0.084523819 0.15620001 0.71000004 4287495791
0.085876197 0.15620001 0.71000004 4287430257
0.087228574 0.15620001 0.71000004 4287430259
0.093593337 0.15554 0.70700002 4287561326
0.094939999 0.15554 0.70700002 4287757941
0.096286669 0.15554 0.70700002 4288020083
0.097633332 0.15554 0.70700002 4287954545
0.10524286 0.15290001 0.69500005 4288085618
0.10656668 0.15290001 0.69500005 4288020088
0.10789049 0.15290001 0.69500005 4287954546
0.1092143 0.15290001 0.69500005 4288020077
0.11022 0.15246001 0.69300002 4288085624
0.11331049 0.15488 0.70400006 4288085636
0.11481429 0.1551 0.70500004 4288085625
0.11615714 0.1551 0.70500004 4288347758
0.11750001 0.1551 0.70500004 4288675455
0.11867429 0.15488 0.70400006 4288478864
0.12001524 0.15488 0.70400006 4288282242
0.1213562 0.15488 0.70400006 4288478836
0.12252286 0.15466 0.70300001 4288740993
0.12350953 0.15422001 0.70100003 4288937614
0.12484477 0.15422001 0.70100003 4289134228
0.12618001 0.15422001 0.70100003 4287163547
0.37546384 0.32978001 1.4990001 4278916106
0.37831905 0.32978001 1.4990001 4278850827
0.38117433 0.32978001 1.4990001 4278783750
0.38223621 0.32824004 1.4920001 4278981121
0.38352954 0.32692 1.4860001 4279112967
0.38480002 0.3256 1.48 4279113230
0.38761905 0.3256 1.48 4279179534
0.39043808 0.3256 1.48 4279179534
0.39139715 0.32405999 1.473 4279179783
0.3925972 0.32274002 1.4670001 4279245569
0.3937743 0.32142001 1.4610001 4279311622
0.39655715 0.32142001 1.4610001 4279507468
0.39770001 0.32010001 1.455 4279703567
0.40047145 0.32010001 1.455 4279572755
0.40324286 0.32010001 1.455 4279507746
0.23014668 0.12627999 0.574 4278454273
0.23083715 0.12606001 0.57300001 4278454529
0.23192857 0.12606001 0.57300001 4278453761
0.23302001 0.12606001 0.57300001 4278387457
0.23531428 0.12496001 0.56800002 4278322945
0.23598 0.12474 0.56700003 4278323457
0.23706001 0.12474 0.56700003 4278388993
0.23772001 0.12452002 0.56600004 4278454273
0.23879811 0.12452002 0.56600004 4278519809
0.23606192 0.12254 0.55700004 4278454018
0.23712288 0.12254 0.55700004 4278322947
0.23775621 0.12232002 0.55600005 4278388485
0.23838572 0.1221 0.55500001 4278387725
0.23944287 0.1221 0.55500001 4278387989
0.2405 0.1221 0.55500001 4278453773
0.24155715 0.1221 0.55500001 4278453509
0.2426143 0.1221 0.55500001 4278519044
0.24279335 0.12166 0.55300003 4278650115
0.24340573 0.12144001 0.55200005 4278781444
0.24445716 0.12144001 0.55200005 4278650630
0.2450638 0.12122 0.551 4278520068
0.24566668 0.121 0.55000001 4278520067
0.24671429 0.121 0.55000001 4278520066
0.24776189 0.121 0.55000001 4278651393
0.24835716 0.12078001 0.54900002 4278782721
0.24940287 0.12078001 0.54900002 4278650881
0.24999239 0.12056001 0.54800004 4278519553
0.2510362 0.12056001 0.54800004 4278454529
0.25208002 0.12056001 0.54800004 4278390017
0.25266191 0.12034 0.54700005 4278454529
0.25324002 0.12012 0.546 4278519809
0.25381428 0.1199 0.54500002 4278454273
0.25485238 0.1199 0.54500002 4278388993
0.25589046 0.1199 0.54500002 4278455041
0.25645718 0.11968001 0.54400003 4278521345
0.25749335 0.11968001 0.54400003 4278455553
0.25852954 0.11968001 0.54400003 4278455298
0.25956571 0.11968001 0.54400003 4278389763
0.2601229 0.11946 0.54300004 4278389762
0.2616381 0.11968001 0.54400003 4278389249
0.26219144 0.11946 0.54300004 4278388481
0.26274097 0.11924001 0.54200006 4278388993
0.26377335 0.11924001 0.54200006 4278390017
0.26431713 0.11902 0.54100001 4278389762
0.26436669 0.11858001 0.53900003 4278389518
0.26490098 0.11836001 0.53800005 4278389274
0.26592574 0.11836001 0.53800005 4278454542
0.26645428 0.11814 0.537 4278650883
0.26747715 0.11814 0.537 4278847235
0.26799998 0.11792 0.53600001 4278716419
0.26902097 0.11792 0.53600001 4278585603
0.27004191 0.11792 0.53600001 4278585603
0.27055717 0.1177 0.53500003 4278585859
0.2715762 0.1177 0.53500003 4278586116
0.27208576 0.11748001 0.53400004 4278586370
0.27310288 0.11748001 0.53400004 4278586113
0.27360669 0.11726001 0.53300005 4278520577
0.27462193 0.11726001 0.53300005 4278586114
0.27511999 0.11703999 0.53200001 4278651905
0.27561429 0.11682 0.53100002 4278651905
0.27610475 0.11660001 0.53000003 4278717442
0.27659145 0.11638001 0.52900004 4278652164
0.27812383 0.11660001 0.53000003 4278586892
0.27860668 0.11638001 0.52900004 4279046676
0.27908573 0.11616 0.528 4279505164
0.27956095 0.11594 0.52700001 4279177476
0.28056479 0.11594 0.52700001 4278784269
0.28156856 0.11594 0.52700001 4278980630
0.28257239 0.11594 0.52700001 4279242517
0.28357619 0.11594 0.52700001 4279505685
-0.40610003 0.20348668 0.91700006 4288587148
-0.40435335 0.20348668 0.91700006 4283459672
-0.40172857 0.20304286 0.91500002 4278328647
-0.39911145 0.20259905 0.91300005 4280362551
-0.39737239 0.20259905 0.91300005 4282462519
-0.37180001 0.20193332 0.91000003 4283914588
-0.37128666 0.20259905 0.91300005 4283651419
-0.36954764 0.20259905 0.91300005 4283388759
-0.36861429 0.20304286 0.91500002 4283322963
-0.36767337 0.20348668 0.91700006 4283257425
-0.36712381 0.20415238 0.92000002 4282929743
-0.36616573 0.20459621 0.92200005 4282665035
-0.36638573 0.20570572 0.92700005 4282467399
-0.36580002 0.20637144 0.93000007 4282270277
-0.36598575 0.20748097 0.93500006 4282007106
-0.3649838 0.20792477 0.93700004 4281809216
-0.36746287 0.21036573 0.94800007 4281349439
-0.36642858 0.21080953 0.95000005 4280954679
-0.36653811 0.21191905 0.95500004 4280691759
-0.36471906 0.21191905 0.95500004 4280428328
-0.36290002 0.21191905 0.95500004 4280231201
-0.36221525 0.21258478 0.95800006 4280099103
-0.36039051 0.21258478 0.95800006 4279901726
-0.35856572 0.21258478 0.95800006 4279770661
-0.35674098 0.21258478 0.95800006 4279705132
-0.3538048 0.21191905 0.95500004 4279704614
-0.35014287 0.21080953 0.95000005 4279507489
-0.34833336 0.21080953 0.95000005 4279375388
-0.34652382 0.21080953 0.95000005 4279243799
-0.34471428 0.21080953 0.95000005 4279176724
-0.34290478 0.21080953 0.95000005 4279045650
-0.34037715 0.21036573 0.94800007 4278980368
-0.33928573 0.21080953 0.95000005 4279046158
-0.33747619 0.21080953 0.95000005 4279111692
-0.33566669 0.21080953 0.95000005 4279111691
-0.33385715 0.21080953 0.95000005 4279176979
-0.33309624 0.21147525 0.95300007 4279176732
-0.33128098 0.21147525 0.95300007 4279177247
-0.33015716 0.21191905 0.95500004 4279375137
-0.32833809 0.21191905 0.95500004 4279570455
-0.32651904 0.21191905 0.95500004 4278913805
-0.32470003 0.21191905 0.95500004 4278322958
-0.33028287 0.22567715 1.0170001 4285615908
-0.32834575 0.22567715 1.0170001 4286606384
-0.32640859 0.22567715 1.0170001 4287594819
-0.32542861 0.22634287 1.0200001 4288059222
-0.32253432 0.22567715 1.0170001 4288584524
-0.31965145 0.22501144 1.0140001 4288257859
-0.31772003 0.22501144 1.0140001 4287912503
-0.31485429 0.22434571 1.011 4286334252
-0.31385717 0.22501144 1.0140001 4284752681
-0.3128486 0.22567715 1.0170001 4281532710
-0.30999431 0.22501144 1.0140001 4278321435
-0.30806285 0.22501144 1.0140001 4278321424
-0.3052257 0.22434571 1.011 4278322451
-0.30240002 0.22367999 1.008 4278716950
-0.29988381 0.2232362 1.006 4279110669
-0.29796764 0.2232362 1.006 4278652676
-0.29605144 0.2232362 1.006 4278257430
-0.29413524 0.2232362 1.006 4280287529
-0.29221907 0.2232362 1.006 4282334297
-0.29087999 0.22367999 1.008 4284905353
-0.28896001 0.22367999 1.008 4287533210
-0.265481 0.21857621 0.98500007 4283718745
-0.26360479 0.21857621 0.98500007 4283259991
-0.26172861 0.21857621 0.98500007 4283456597
-0.25985241 0.21857621 0.98500007 4283718227
-0.25876191 0.21924192 0.98800004 4283718225
-0.25687999 0.21924192 0.98800004 4283717971
-0.25499812 0.21924192 0.98800004 4283586901
-0.14144 0.14912002 0.67200005 4285726297
-0.14016001 0.14912002 0.67200005 4285857368
-0.13888 0.14912002 0.67200005 4286053726
-0.13800952 0.14956382 0.67400002 4285988196
-0.13672572 0.14956382 0.67400002 4285922652
-0.095480002 0.15133905 0.68200004 4285922918
-0.093904756 0.15089524 0.68000001 4285922906
-0.092473336 0.15067333 0.67900002 4285791823
-0.091180004 0.15067333 0.67900002 4285726294
-0.090019047 0.15089524 0.68000001 4285988446
-0.088462859 0.15045144 0.67800003 4286250592
-0.086914293 0.15000762 0.67600006 4286250594
-0.085626669 0.15000762 0.67600006 4286250596
-0.084339052 0.15000762 0.67600006 4286250599
-0.083051436 0.15000762 0.67600006 4286316140
-0.081763811 0.15000762 0.67600006 4286381680
-0.080476195 0.15000762 0.67600006 4286512744
-0.079540007 0.15067333 0.67900002 4286447200
-0.078246668 0.15067333 0.67900002 4286381667
-0.077066667 0.15089524 0.68000001 4286316134
-0.075771429 0.15089524 0.68000001 4286316131
-0.074476197 0.15089524 0.68000001 4286316129
-0.073503807 0.15156096 0.68300003 4286381668
-0.072520003 0.15222667 0.68600005 4286381671
-0.071213335 0.15222667 0.68600005 4286447199
-0.069906674 0.15222667 0.68600005 4286381654
-0.068600006 0.15222667 0.68600005 4286381667
-0.066508569 0.15045144 0.67800003 4286381681
-0.066467628 0.1533362 0.69100004 4286381671
-0.065151431 0.1533362 0.69100004 4286381662
-0.063742861 0.1531143 0.69000006 4286447204
-0.061704762 0.15133905 0.68200004 4286381675
-0.061202858 0.1533362 0.69100004 4286316134
-0.058933333 0.15089524 0.68000001 4286512737
-0.058485717 0.1531143 0.69000006 4286709343
-0.057171434 0.1531143 0.69000006 4286578269
-0.055938099 0.1533362 0.69100004 4286512735
-0.054542862 0.1531143 0.69000006 4286578274
-0.053305719 0.1533362 0.69100004 4286709345
-0.051989529 0.1533362 0.69100004 4286643809
0.038271431 0.15644287 0.70500004 4286905978
0.039614286 0.15644287 0.70500004 4286971509
0.04364286 0.15644287 0.70500004 4286643832
0.044921909 0.15622096 0.70400006 4286578288
0.045802858 0.15466762 0.69700003 4286709095
0.04713048 0.15466762 0.69700003 4286840174
0.048319053 0.15422381 0.69500005 4286971509
0.049642861 0.15422381 0.69500005 4287102580
0.050966669 0.15422381 0.69500005 4287102578
0.06829524 0.15755239 0.71000004 4286971493
0.069451429 0.15710858 0.708 4287037028
0.071000002 0.15755239 0.71000004 4287168100
0.07235238 0.15755239 0.71000004 4287299176
0.073081911 0.15622096 0.70400006 4287233644
0.07431715 0.15599905 0.70300001 4287233655
0.075118095 0.15488952 0.69800001 4287299201
0.076338097 0.15466762 0.69700003 4287430262
0.077665716 0.15466762 0.69700003 4287626859
0.079106666 0.15488952 0.69800001 4287889001
0.080436192 0.15488952 0.69800001 4287757928
0.082117148 0.15555525 0.70100003 4287692393
0.096286669 0.15688667 0.70700002 4288085624
0.097633332 0.15688667 0.70700002 4287889012
0.10554572 0.15466762 0.69700003 4287954548
0.10656668 0.15422381 0.69500005 4287954549
0.10789049 0.15422381 0.69500005 4287954543
0.10905714 0.15400191 0.69400001 4287954537
0.11149239 0.15555525 0.70100003 4288020087
0.11314952 0.15599905 0.70300001 4287954565
0.11465143 0.15622096 0.70400006 4287889022
0.11615714 0.15644287 0.70500004 4288085623
0.11733335 0.15622096 0.70400006 4288347773
0.11867429 0.15622096 0.70400006 4288282243
0.12001524 0.15622096 0.70400006 4288216698
0.12118381 0.15599905 0.70300001 4288675441
0.12217429 0.15555525 0.70100003 4289199743
0.12350953 0.15555525 0.70100003 4289265292
0.12466668 0.15533334 0.70000005 4289395065
0.126 0.15533334 0.70000005 4285651559
0.37546384 0.33263525 1.4990001 4278850318
0.37831905 0.33263525 1.4990001 4278916111
0.37939429 0.33108193 1.4920001 4278981393
0.38069904 0.32975048 1.4860001 4279243539
0.38352954 0.32975048 1.4860001 4279571730
0.38480002 0.32841903 1.48 4279309842
0.38578573 0.32686573 1.473 4279113488
0.38859144 0.32686573 1.473 4279113742
0.38980287 0.32553431 1.4670001 4279112971
0.3925972 0.32553431 1.4670001 4279177737
0.39215717 0.32287145 1.455 4279310604
0.39492857 0.32287145 1.455 4279311887
0.39770001 0.32287145 1.455 4279309585
0.39882004 0.32154003 1.4490001 4279375892
0.40158004 0.32154003 1.4490001 4279507224
0.23606192 0.12360096 0.55700004 4278520066
0.23669717 0.12337907 0.55600005 4278388738
0.23732857 0.12315714 0.55500001 4278322947
0.23838572 0.12315714 0.55500001 4278322183
0.23944287 0.12315714 0.55500001 4278322443
0.24006668 0.12293524 0.55400002 4278387976
0.24112192 0.12293524 0.55400002 4278454021
0.24174 0.12271334 0.55300003 4278519558
0.2423543 0.12249144 0.55200005 4278454024
0.24296476 0.12226952 0.551 4278453512
0.24401428 0.12226952 0.551 4278387720
0.2450638 0.12226952 0.551 4278388997
0.24566668 0.12204763 0.55000001 4278519042
0.24671429 0.12204763 0.55000001 4278650625
0.24776189 0.12204763 0.55000001 4278781441
0.24835716 0.12182572 0.54900002 4278978561
0.24894859 0.12160382 0.54800004 4278716930
0.24999239 0.12160382 0.54800004 4278519813
0.2510362 0.12160382 0.54800004 4278454793
0.25162002 0.12138192 0.54700005 4278388997
0.25220001 0.12116 0.546 4278388993
0.25277621 0.12093809 0.54500002 4278389249
0.25334859 0.12071619 0.54400003 4278389761
0.25438476 0.12071619 0.54400003 4278389250
0.25542095 0.12071619 0.54400003 4278454531
0.25645718 0.12071619 0.54400003 4278521090
0.25749335 0.12071619 0.54400003 4278521345
0.25805432 0.1204943 0.54300004 4278586116
0.25908861 0.1204943 0.54300004 4278454535
0.25964385 0.12027239 0.54200006 4278389764
0.26115716 0.1204943 0.54300004 4278323201
0.26170862 0.12027239 0.54200006 4278322945
0.26274097 0.12027239 0.54200006 4278388481
0.26328668 0.12005048 0.54100001 4278454785
0.26382858 0.11982857 0.54000002 4278389505
0.26436669 0.11960667 0.53900003 4278323721
0.26490098 0.11938477 0.53800005 4278389009
0.26592574 0.11938477 0.53800005 4278453770
0.26645428 0.11916286 0.537 4278452994
0.26747715 0.11916286 0.537 4278453250
0.26799998 0.11894095 0.53600001 4278387970
0.26902097 0.11894095 0.53600001 4278387714
0.2695381 0.11871905 0.53500003 4278387715
0.27005145 0.11849716 0.53400004 4278388230
0.27106857 0.11849716 0.53400004 4278388745
0.27157623 0.11827525 0.53300005 4278454278
0.27259147 0.11827525 0.53300005 4278454275
0.27360669 0.11827525 0.53300005 4278454018
0.27410668 0.11805333 0.53200001 4278454017
0.27511999 0.11805333 0.53200001 4278519809
0.27509525 0.11760953 0.53000003 4278520065
0.27558383 0.11738763 0.52900004 4278585346
0.27659145 0.11738763 0.52900004 4278388739
0.27759907 0.11738763 0.52900004 4278259208
0.27860668 0.11738763 0.52900004 4278522124
0.27855715 0.11694381 0.52700001 4278783495
0.27956095 0.11694381 0.52700001 4278585602
0.28056479 0.11694381 0.52700001 4278456850
0.28156856 0.11694381 0.52700001 4278783778
0.28257239 0.11694381 0.52700001 4279111705
0.28357619 0.11694381 0.52700001 4279637009
-0.40610003 0.20523334 0.91700006 4283907924
-0.40347144 0.20478572 0.91500002 4281808129
-0.4008505 0.2043381 0.91300005 4279763751
-0.39911145 0.2043381 0.91300005 4281218126
-0.39737239 0.2043381 0.91300005 4282662723
-0.37180001 0.20366667 0.91000003 4283784027
-0.37006667 0.20366667 0.91000003 4283585880
-0.36954764 0.2043381 0.91300005 4283454549
-0.36861429 0.20478572 0.91500002 4283257427
-0.36687142 0.20478572 0.91500002 4283125329
-0.36592668 0.20523334 0.91700006 4282862928
-0.36418003 0.20523334 0.91700006 4282598220
-0.36440957 0.2063524 0.92200005 4282336072
-0.36462 0.20747145 0.92700005 4282008386
-0.36794287 0.21038096 0.94000006 4281744957
-0.36693144 0.21082857 0.94200003 4281546814
