# .PCD v0.7 - Point Cloud Data file format
VERSION 0.7
FIELDS x y z rgba
SIZE 4 4 4 4
TYPE F F F U
COUNT 1 1 1 1
WIDTH 1131
HEIGHT 1
VIEWPOINT 0 0 0 1 0 0 0
POINTS 1131
DATA ascii
-0.37810001 0.1957 0.66500002 4287728273
-0.37683335 0.1957 0.66500002 4287467151
-0.37556666 0.1957 0.66500002 4287271050
-0.37655145 0.19687715 0.66900003 4286805636
-0.37639904 0.19746572 0.671 4286412416
-0.37568003 0.19776 0.67200005 4286085500
-0.37607142 0.19864285 0.67500001 4285822589
-0.37534097 0.19893716 0.67600006 4285953662
-0.37516004 0.19952573 0.67800003 4286084478
-0.37386858 0.19952573 0.67800003 4286019711
-0.37972099 0.20335144 0.69100004 4286019451
-0.3795 0.20394 0.69300002 4286018423
-0.37872574 0.20423429 0.69400001 4286082930
-0.37794766 0.20452859 0.69500005 4285753197
-0.37770763 0.20511714 0.69700003 4285491051
-0.37692001 0.20541143 0.69800001 4285359978
-0.37559047 0.20541143 0.69800001 4285294440
-0.37426096 0.20541143 0.69800001 4285556839
-0.37400001 0.20600002 0.70000005 4285884521
-0.37160191 0.20541143 0.69800001 4285557099
-0.3702724 0.20541143 0.69800001 4285229161
-0.45076001 0.33725142 1.146 4280292402
-0.44857714 0.33725142 1.146 4279899444
-0.44639429 0.33725142 1.146 4279505960
-0.44421142 0.33725142 1.146 4279636252
-0.44202858 0.33725142 1.146 4279766814
-0.43984571 0.33725142 1.146 4279504161
-0.43919051 0.33842862 1.1500001 4279242013
-0.43700004 0.33842862 1.1500001 4279110938
-0.43480957 0.33842862 1.1500001 4279045139
-0.43374762 0.33931142 1.153 4279045133
-0.43155143 0.33931142 1.153 4279110679
-0.43084478 0.34048858 1.1570001 4279045153
-0.42864096 0.34048858 1.1570001 4278979619
-0.42643717 0.34048858 1.1570001 4279176229
-0.42570001 0.34166571 1.161 4279437858
-0.42348856 0.34166571 1.161 4279437599
-0.42127714 0.34166571 1.161 4279503649
-0.41906571 0.34166571 1.161 4279504164
-0.41685426 0.34166571 1.161 4279504412
-0.4132143 0.34048858 1.1570001 4279439125
-0.4110105 0.34048858 1.1570001 4279439900
-0.40633336 0.33842862 1.1500001 4279308836
-0.40414289 0.33842862 1.1500001 4279243304
-0.40195242 0.33842862 1.1500001 4279243565
-0.40219525 0.34048858 1.1570001 4279309101
-0.39999145 0.34048858 1.1570001 4279440430
-0.39916286 0.34166571 1.161 4279636527
-0.39695144 0.34166571 1.161 4279439664
-0.39473999 0.34166571 1.161 4279308338
-0.39252856 0.34166571 1.161 4279569973
-0.39268667 0.40582001 1.3790001 4280230190
-0.39006001 0.40582001 1.3790001 4280622897
-0.38522857 0.40905717 1.3900001 4280097580
-0.38258097 0.40905717 1.3900001 4280034357
-0.38321334 0.4125886 1.4020001 4280362558
-0.3789143 0.41082287 1.396 4280756291
-0.37625521 0.41082287 1.396 4281346633
-0.37359619 0.41082287 1.396 4282004308
-0.36934289 0.40905717 1.3900001 4282862176
-0.36827812 0.41082287 1.396 4283717473
-0.36561903 0.41082287 1.396 4284048481
-0.36140004 0.40905717 1.3900001 4284377189
-0.35591334 0.40582001 1.3790001 4285102185
-0.35200572 0.40434858 1.3740001 4285825926
-0.34786287 0.40258285 1.368 4287011748
-0.34399524 0.40111145 1.363 4288256665
-0.34139904 0.40111145 1.363 4287601038
-0.33756003 0.39963999 1.358 4286943361
-0.33497334 0.39963999 1.358 4287858547
-0.33238667 0.39963999 1.358 4288846996
-0.32980001 0.39963999 1.358 4289444532
-0.32721335 0.39963999 1.358 4290032568
-0.32582191 0.40111145 1.363 4289768635
-0.32322574 0.40111145 1.363 4289574328
-0.32062954 0.40111145 1.363 4289642422
-0.31920001 0.40258285 1.368 4289704617
-0.31798288 0.40434858 1.3740001 4287267484
-0.3178905 0.40758574 1.3850001 4284905097
-0.31525239 0.40758574 1.3850001 4285297526
-0.31374288 0.40905717 1.3900001 4285756293
-0.3124381 0.41082287 1.396 4288130965
-0.30977905 0.41082287 1.396 4290484906
-0.30712 0.41082287 1.396 4288193471
-0.30446097 0.41082287 1.396 4285958290
-0.30180189 0.41082287 1.396 4285164902
-0.1770343 0.26426861 0.89800006 4285033844
-0.17532381 0.26426861 0.89800006 4284832610
-0.17361334 0.26426861 0.89800006 4282200400
-0.17152001 0.26368001 0.89600003 4279574593
-0.16981333 0.26368001 0.89600003 4280162866
-0.16810668 0.26368001 0.89600003 4280819249
-0.15966 0.26103142 0.88700002 4281871942
-0.15797047 0.26103142 0.88700002 4282657355
-0.1575143 0.26309142 0.89400005 4283514700
-0.15616 0.26368001 0.89600003 4284046158
-0.15445334 0.26368001 0.89600003 4284570461
-0.15308762 0.26426861 0.89800006 4284902508
-0.15137716 0.26426861 0.89800006 4285294954
-0.14279525 0.28104284 0.95500004 4278780436
-0.14215715 0.28339717 0.96300006 4280815888
-0.14032286 0.28339717 0.96300006 4282862413
-0.13848858 0.28339717 0.96300006 4285307785
-0.13708 0.28428 0.96600002 4287797862
-0.20888002 0.43907434 1.4920001 4283325763
-0.20520952 0.43730858 1.4860001 4278845730
-0.2015619 0.43554285 1.48 4278518017
-0.19874287 0.43554285 1.48 4278256153
-0.19499715 0.43348286 1.473 4280946226
-0.19219144 0.43348286 1.473 4283652433
-0.18938573 0.43348286 1.473 4284573296
-0.18658 0.43348286 1.473 4285552748
-0.18377429 0.43348286 1.473 4285617001
-0.18096858 0.43348286 1.473 4285751674
-0.17816286 0.43348286 1.473 4286870156
-0.17535715 0.43348286 1.473 4288052628
-0.17337143 0.43554285 1.48 4289170845
-0.17055239 0.43554285 1.48 4290286246
-0.16773333 0.43554285 1.48 4290156463
-0.16491428 0.43554285 1.48 4290089366
-0.16275239 0.43730858 1.4860001 4288764286
-0.16056763 0.43907434 1.4920001 4287533469
-0.082437143 0.41759142 1.419 4282662943
-0.080408581 0.42112291 1.4310001 4280422914
-0.077682868 0.42112291 1.4310001 4278255964
-0.074957155 0.42112291 1.4310001 4286557110
-0.072231427 0.42112291 1.4310001 4294901466
-0.069797143 0.42288858 1.437 4294901502
-0.067060001 0.42288858 1.437 4294901502
-0.064322859 0.42288858 1.437 4294901502
-0.061328575 0.42112291 1.4310001 4294901502
-0.058848571 0.42288858 1.437 4294901502
-0.056111429 0.42288858 1.437 4294901502
-0.053374287 0.42288858 1.437 4294901502
-0.050637145 0.42288858 1.437 4294901502
-0.047900002 0.42288858 1.437 4294901502
-0.045162857 0.42288858 1.437 4294901502
-0.042248573 0.42112291 1.4310001 4294901502
-0.039688572 0.42288858 1.437 4294901502
-0.036951426 0.42288858 1.437 4294901502
-0.034214284 0.42288858 1.437 4294901502
-0.031345718 0.42112291 1.4310001 4294901502
-0.028620003 0.42112291 1.4310001 4294901502
-0.026002858 0.42288858 1.437 4294901502
-0.023265716 0.42288858 1.437 4294901502
-0.020442858 0.42112291 1.4310001 4294901502
-0.017865716 0.4246543 1.4430001 4294901502
-0.015054286 0.42288858 1.437 4294901502
-0.012317143 0.42288858 1.437 4294901495
-0.0095800003 0.42288858 1.437 4294768880
-0.0068428577 0.42288858 1.437 4294638064
-0.0041057141 0.42288858 1.437 4294373616
-0.0013685714 0.42288858 1.437 4294177000
0.0013628573 0.42112291 1.4310001 4293715936
0.0041057141 0.42288858 1.437 4293321172
0.0068142861 0.42112291 1.4310001 4292793033
0.0095400009 0.42112291 1.4310001 4292268476
0.012265715 0.42112291 1.4310001 4292002735
0.015054286 0.42288858 1.437 4291739568
0.017642858 0.41935715 1.4250001 4291410865
0.020185716 0.41582575 1.4130001 4291083180
0.022780001 0.41406003 1.4070001 4290422951
0.025369523 0.4125886 1.4020001 4289834675
0.028040001 0.4125886 1.4020001 4291081662
0.030710477 0.4125886 1.4020001 4292336074
0.033238098 0.41082287 1.396 4292335317
0.035897143 0.41082287 1.396 4292334550
0.038556192 0.41082287 1.396 4292334807
0.0410381 0.40905717 1.3900001 4292400341
0.043685716 0.40905717 1.3900001 4292400339
0.046333339 0.40905717 1.3900001 4292466130
0.048804764 0.40758574 1.3850001 4292466897
0.051442858 0.40758574 1.3850001 4292531920
0.054080956 0.40758574 1.3850001 4292400590
0.05671905 0.40758574 1.3850001 4292335051
0.059100002 0.40582001 1.3790001 4292400840
0.061726671 0.40582001 1.3790001 4292465612
0.064120002 0.40434858 1.3740001 4292399568
0.066737145 0.40434858 1.3740001 4292333776
0.069354288 0.40434858 1.3740001 4292333777
0.071971431 0.40434858 1.3740001 4292400593
0.074588574 0.40434858 1.3740001 4292466898
0.076868579 0.40258285 1.368 4292532433
0.079474285 0.40258285 1.368 4292532433
0.082080007 0.40258285 1.368 4292532434
0.084376194 0.40111145 1.363 4292597971
0.087291434 0.40258285 1.368 4292663255
0.089568578 0.40111145 1.363 4292859612
0.092502862 0.40258285 1.368 4293125613
0.095108569 0.40258285 1.368 4293983998
0.098928578 0.40758574 1.3850001 4294901502
0.10193334 0.40905717 1.3900001 4294901502
0.10458095 0.40905717 1.3900001 4294901502
0.10815429 0.4125886 1.4020001 4294901502
0.11169429 0.41582575 1.4130001 4294901502
0.11487143 0.41759142 1.419 4294901502
0.11807143 0.41935715 1.4250001 4294901502
0.12129429 0.42112291 1.4310001 4294901502
0.12402001 0.42112291 1.4310001 4294901502
0.12674572 0.42112291 1.4310001 4294901502
0.13001429 0.42288858 1.437 4294901502
0.13275144 0.42288858 1.437 4294901502
0.13548857 0.42288858 1.437 4294901502
0.13822572 0.42288858 1.437 4294901502
0.14096285 0.42288858 1.437 4294901502
0.1437 0.42288858 1.437 4294901502
0.14643714 0.42288858 1.437 4294901502
0.14855145 0.42112291 1.4310001 4294901502
0.15127715 0.42112291 1.4310001 4294901502
0.15400288 0.42112291 1.4310001 4294901502
0.15672858 0.42112291 1.4310001 4294901502
0.1594543 0.42112291 1.4310001 4294901502
0.16218002 0.42112291 1.4310001 4294901502
0.16490573 0.42112291 1.4310001 4294901502
0.16833429 0.42288858 1.437 4294901502
0.17107143 0.42288858 1.437 4294901502
0.17453431 0.4246543 1.4430001 4294901502
0.17728285 0.4246543 1.4430001 4294901502
0.17928286 0.42288858 1.437 4294901502
0.18201999 0.42288858 1.437 4294901502
0.18475716 0.42288858 1.437 4294901502
0.18749429 0.42288858 1.437 4294901502
0.19023144 0.42288858 1.437 4294901502
0.19296858 0.42288858 1.437 4294901502
0.19488858 0.42112291 1.4310001 4294901502
0.1976143 0.42112291 1.4310001 4294901502
0.20034 0.42112291 1.4310001 4294901502
0.20306572 0.42112291 1.4310001 4294901502
0.20665428 0.42288858 1.437 4294901502
0.20939143 0.42288858 1.437 4294901502
0.21212856 0.42288858 1.437 4294901502
0.21486571 0.42288858 1.437 4294901502
0.21760285 0.42288858 1.437 4294901502
0.22034001 0.42288858 1.437 4294901502
0.22307715 0.42288858 1.437 4294901502
0.2258143 0.42288858 1.437 4294901502
0.22855143 0.42288858 1.437 4294901502
0.23032287 0.42112291 1.4310001 4294901502
0.23304859 0.42112291 1.4310001 4294901502
0.29551718 0.4411343 1.4990001 4293583063
0.29837239 0.4411343 1.4990001 4294246119
0.29982096 0.43907434 1.4920001 4294901229
0.30266288 0.43907434 1.4920001 4294835443
0.3055048 0.43907434 1.4920001 4294770163
0.30834666 0.43907434 1.4920001 4294835955
0.31118858 0.43907434 1.4920001 4294901496
0.31550384 0.4411343 1.4990001 4294901502
0.31835905 0.4411343 1.4990001 4294901502
0.32121432 0.4411343 1.4990001 4294901502
0.32406953 0.4411343 1.4990001 4294901502
0.48638573 0.4281857 1.455 4284570195
0.48714003 0.42642003 1.4490001 4284569670
0.48990002 0.42642003 1.4490001 4284568908
0.49469998 0.4281857 1.455 4285095506
0.49747145 0.4281857 1.455 4285686078
0.49818003 0.42642003 1.4490001 4285346090
-0.37834382 0.1957819 0.66100001 4287795092
-0.37765527 0.19607811 0.66200006 4287728531
-0.3769629 0.1963743 0.66300005 4287661975
-0.3757 0.1963743 0.66300005 4287400604
-0.37556666 0.19696666 0.66500002 4287140495
-0.37542573 0.19755906 0.66700006 4286740866
-0.37415528 0.19755906 0.66700006 4286346366
-0.37568003 0.19904001 0.67200005 4286150011
-0.37607142 0.19992857 0.67500001 4285953659
-0.37534097 0.20022479 0.67600006 4286019196
-0.37571335 0.20111334 0.67900002 4286150266
-0.37442002 0.20111334 0.67900002 4285953400
-0.37312669 0.20111334 0.67900002 4285822326
-0.37840477 0.20466763 0.69100004 4286084468
-0.37872574 0.20555618 0.69400001 4286281072
-0.37794766 0.2058524 0.69500005 4285885292
-0.37770763 0.20644477 0.69700003 4285491052
-0.37692001 0.20674095 0.69800001 4285294444
-0.37559047 0.20674095 0.69800001 4285097833
-0.37533337 0.20733334 0.70000005 4285359975
-0.37400001 0.20733334 0.70000005 4285622120
-0.37266669 0.20733334 0.70000005 4285425513
-0.37133336 0.20733334 0.70000005 4285294441
-0.45076001 0.3394343 1.146 4279833132
-0.44857714 0.3394343 1.146 4279636521
-0.44639429 0.3394343 1.146 4279505692
-0.44421142 0.3394343 1.146 4279570448
-0.44202858 0.3394343 1.146 4279635736
-0.43984571 0.3394343 1.146 4279570464
-0.43766287 0.3394343 1.146 4279439645
-0.43700004 0.34061906 1.1500001 4279439642
-0.43480957 0.34061906 1.1500001 4279439638
-0.43374762 0.34150761 1.153 4279439635
-0.43155143 0.34150761 1.153 4279505433
-0.43084478 0.3426924 1.1570001 4279439648
-0.42864096 0.3426924 1.1570001 4279439652
-0.42643717 0.3426924 1.1570001 4279570729
-0.42570001 0.34387717 1.161 4279767333
-0.42348856 0.34387717 1.161 4279833377
-0.42127714 0.34387717 1.161 4279965221
-0.41906571 0.34387717 1.161 4279899434
-0.41685426 0.34387717 1.161 4279899427
-0.41464284 0.34387717 1.161 4279833628
-0.4110105 0.3426924 1.1570001 4279767841
-0.40633336 0.34061906 1.1500001 4279505959
-0.40414289 0.34061906 1.1500001 4279309610
-0.40195242 0.34061906 1.1500001 4279112493
-0.40080476 0.34150761 1.153 4278980906
-0.39860857 0.34150761 1.153 4279177767
-0.39538097 0.34061906 1.1500001 4279374124
-0.39558384 0.3426924 1.1570001 4279374130
-0.39338002 0.3426924 1.1570001 4279374133
-0.39252856 0.34387717 1.161 4279702072
-0.40376195 0.41170481 1.3900001 4280756029
-0.40111431 0.41170481 1.3900001 4280492602
-0.39846671 0.41170481 1.3900001 4280227376
-0.39439526 0.41022384 1.3850001 4280490279
-0.39006001 0.40844667 1.3790001 4280818990
-0.38743335 0.40844667 1.3790001 4280622646
-0.38480669 0.40844667 1.3790001 4280426806
-0.38218004 0.40844667 1.3790001 4280362038
-0.37955335 0.40844667 1.3790001 4280297532
-0.37692666 0.40844667 1.3790001 4280625218
-0.37728572 0.41170481 1.3900001 4281018436
-0.37463811 0.41170481 1.3900001 4281805895
-0.3719905 0.41170481 1.3900001 4282593621
-0.36934289 0.41170481 1.3900001 4283323747
-0.36669526 0.41170481 1.3900001 4284115556
-0.36404765 0.41170481 1.3900001 4284246374
-0.36140004 0.41170481 1.3900001 4284442989
-0.35178381 0.40370762 1.363 4285694068
-0.34790668 0.40222669 1.358 4286876558
-0.34379432 0.40044957 1.3520001 4287272616
-0.34121907 0.40044957 1.3520001 4287666336
-0.33864382 0.40044957 1.3520001 4287138968
-0.3360686 0.40044957 1.3520001 4286677378
-0.33349335 0.40044957 1.3520001 4288190828
-0.3309181 0.40044957 1.3520001 4289770385
-0.32834288 0.40044957 1.3520001 4289770166
-0.32721335 0.40222669 1.358 4289769914
-0.32462665 0.40222669 1.358 4289770431
-0.32322574 0.40370762 1.363 4289774269
-0.32062954 0.40370762 1.363 4289049276
-0.31920001 0.40518856 1.368 4288389529
-0.31798288 0.40696573 1.3740001 4286740087
-0.31651336 0.40844667 1.3790001 4285101176
-0.31525239 0.41022384 1.3850001 4286148985
-0.31374288 0.41170481 1.3900001 4287199381
-0.3124381 0.41348189 1.396 4288526002
-0.30977905 0.41348189 1.396 4289829038
-0.30712 0.41348189 1.396 4287660458
-0.30446097 0.41348189 1.396 4285418890
-0.30050477 0.41170481 1.3900001 4285032299
-0.29785717 0.41170481 1.3900001 4284639846
-0.17762572 0.26686761 0.90100002 4284573552
-0.17532381 0.26597905 0.89800006 4283714904
-0.17361334 0.26597905 0.89800006 4281410368
-0.17190287 0.26597905 0.89800006 4279179838
-0.16981333 0.26538667 0.89600003 4280098109
-0.16679335 0.26331332 0.88900006 4281081914
-0.16510001 0.26331332 0.88900006 4281282872
-0.16175239 0.26064762 0.88000005 4281417023
-0.16044 0.26124001 0.88200003 4281610823
-0.15876 0.26124001 0.88200003 4281805130
-0.15708001 0.26124001 0.88200003 4282924365
-0.15539999 0.26124001 0.88200003 4284109392
-0.14279525 0.28286192 0.95500004 4278518532
-0.14215715 0.28523144 0.96300006 4280683016
-0.14032286 0.28523144 0.96300006 4282861901
-0.13848858 0.28523144 0.96300006 4285371539
-0.20520952 0.44013906 1.4860001 4280484128
-0.2015619 0.43836191 1.48 4279369985
-0.19874287 0.43836191 1.48 4278256395
-0.19592381 0.43836191 1.48 4280486421
-0.19310477 0.43836191 1.48 4282732866
-0.19028571 0.43836191 1.48 4284114032
-0.18746667 0.43836191 1.48 4285553769
-0.18464762 0.43836191 1.48 4285420898
-0.18182857 0.43836191 1.48 4285355123
-0.17900953 0.43836191 1.48 4286606725
-0.17619048 0.43836191 1.48 4287856780
-0.17337143 0.43836191 1.48 4288972948
-0.17055239 0.43836191 1.48 4290023071
-0.16841334 0.44013906 1.4860001 4290484907
-0.16558285 0.44013906 1.4860001 4291012495
-0.16275239 0.44013906 1.4860001 4289697139
-0.16056763 0.4419162 1.4920001 4288381838
-0.15846571 0.44398955 1.4990001 4289628842
-0.082437143 0.42029431 1.419 4282597149
-0.079734288 0.42029431 1.419 4280421633
-0.077031434 0.42029431 1.419 4278255968
-0.074957155 0.4238486 1.4310001 4286560447
-0.071625717 0.42029431 1.419 4294901470
-0.069505714 0.4238486 1.4310001 4294901502
-0.066780001 0.4238486 1.4310001 4294901502
-0.064054288 0.4238486 1.4310001 4294901502
-0.061328575 0.4238486 1.4310001 4294901502
-0.058602862 0.4238486 1.4310001 4294901502
-0.055877149 0.4238486 1.4310001 4294901502
-0.053151432 0.4238486 1.4310001 4294901502
-0.050425716 0.4238486 1.4310001 4294901502
-0.047700003 0.4238486 1.4310001 4294901502
-0.04497429 0.4238486 1.4310001 4294901502
-0.042248573 0.4238486 1.4310001 4294901502
-0.039688572 0.42562571 1.437 4294901502
-0.036797147 0.4238486 1.4310001 4294901502
-0.034071431 0.4238486 1.4310001 4294901502
-0.031345718 0.4238486 1.4310001 4294901502
-0.028620003 0.4238486 1.4310001 4294901502
-0.025894288 0.4238486 1.4310001 4294901502
-0.023168573 0.4238486 1.4310001 4294901502
-0.020442858 0.4238486 1.4310001 4294901502
-0.017791428 0.42562571 1.437 4294901502
-0.015054286 0.42562571 1.437 4294901502
-0.012265715 0.4238486 1.4310001 4294901494
-0.0095800003 0.42562571 1.437 4294835439
-0.0068428577 0.42562571 1.437 4294769391
-0.0040885718 0.4238486 1.4310001 4294571247
-0.0013628573 0.4238486 1.4310001 4294373094
0.0013628573 0.4238486 1.4310001 4293978334
0.0040885718 0.4238486 1.4310001 4293648332
0.0068142861 0.4238486 1.4310001 4292925627
0.0095000006 0.42207143 1.4250001 4292268984
0.012214286 0.42207143 1.4250001 4291871670
0.014865714 0.42029431 1.419 4291477940
0.017568571 0.42029431 1.419 4291082162
0.020100001 0.41674003 1.4070001 4290623917
0.022780001 0.41674003 1.4070001 4290091944
0.025369523 0.41525906 1.4020001 4289633458
0.028040001 0.41525906 1.4020001 4291014589
0.030579049 0.41348189 1.396 4292405194
0.033238098 0.41348189 1.396 4292335576
0.035897143 0.41348189 1.396 4292334549
0.038556192 0.41348189 1.396 4292334547
0.041215237 0.41348189 1.396 4292400083
0.043685716 0.41170481 1.3900001 4292465876
0.046333339 0.41170481 1.3900001 4292466131
0.048980955 0.41170481 1.3900001 4292531667
0.051442858 0.41022384 1.3850001 4292662995
0.054080956 0.41022384 1.3850001 4292531923
0.05671905 0.41022384 1.3850001 4292400848
0.059357148 0.41022384 1.3850001 4292400845
0.061726671 0.40844667 1.3790001 4292401102
0.064353339 0.40844667 1.3790001 4292401104
0.066737145 0.40696573 1.3740001 4292466896
0.069354288 0.40696573 1.3740001 4292466640
0.071971431 0.40696573 1.3740001 4292466642
0.074588574 0.40696573 1.3740001 4292466900
0.076868579 0.40518856 1.368 4292532435
0.079474285 0.40518856 1.368 4292532434
0.082080007 0.40518856 1.368 4292598227
0.084685713 0.40518856 1.368 4292532693
0.08767429 0.40696573 1.3740001 4292532696
0.090291433 0.40696573 1.3740001 4292858076
0.092908576 0.40696573 1.3740001 4293258477
0.095525712 0.40696573 1.3740001 4294049534
0.098928578 0.41022384 1.3850001 4294901502
0.10193334 0.41170481 1.3900001 4294901502
0.10503238 0.41348189 1.396 4294901502
0.10815429 0.41525906 1.4020001 4294901502
0.11122 0.41674003 1.4070001 4294901502
0.11487143 0.42029431 1.419 4294901502
0.11807143 0.42207143 1.4250001 4294901502
0.12078572 0.42207143 1.4250001 4294901502
0.12402001 0.4238486 1.4310001 4294901502
0.12674572 0.4238486 1.4310001 4294901502
0.12947144 0.4238486 1.4310001 4294901502
0.13275144 0.42562571 1.437 4294901502
0.13492286 0.4238486 1.4310001 4294901502
0.13764858 0.4238486 1.4310001 4294901502
0.14037429 0.4238486 1.4310001 4294901502
0.14310001 0.4238486 1.4310001 4294901502
0.14582573 0.4238486 1.4310001 4294901502
0.14792858 0.42207143 1.4250001 4294901502
0.15064286 0.42207143 1.4250001 4294901502
0.15400288 0.4238486 1.4310001 4294901502
0.15672858 0.4238486 1.4310001 4294901502
0.1594543 0.4238486 1.4310001 4294901502
0.16218002 0.4238486 1.4310001 4294901502
0.16490573 0.4238486 1.4310001 4294901502
0.16763145 0.4238486 1.4310001 4294901502
0.17035715 0.4238486 1.4310001 4294901502
0.17308287 0.4238486 1.4310001 4294901502
0.17580858 0.4238486 1.4310001 4294901502
0.1785343 0.4238486 1.4310001 4294901502
0.18126 0.4238486 1.4310001 4294901502
0.18321429 0.42207143 1.4250001 4294901502
0.18592857 0.42207143 1.4250001 4294901502
0.18864286 0.42207143 1.4250001 4294901502
0.19135715 0.42207143 1.4250001 4294901502
0.19407144 0.42207143 1.4250001 4294901502
0.19595714 0.42029431 1.419 4294901502
0.19866 0.42029431 1.419 4294901502
0.20136285 0.42029431 1.419 4294901502
0.20406571 0.42029431 1.419 4294901502
0.20676857 0.42029431 1.419 4294901502
0.20947143 0.42029431 1.419 4294901502
0.21217428 0.42029431 1.419 4294901502
0.21669431 0.4238486 1.4310001 4294901502
0.21942002 0.4238486 1.4310001 4294901502
0.22214574 0.4238486 1.4310001 4294901502
0.22487144 0.4238486 1.4310001 4294901502
0.22759716 0.4238486 1.4310001 4294901502
0.22935715 0.42207143 1.4250001 4294901502
0.23207144 0.42207143 1.4250001 4294901502
0.23478572 0.42207143 1.4250001 4294901502
0.23550002 0.41851717 1.4130001 4294901502
0.29266191 0.44398955 1.4990001 4290363618
0.29551718 0.44398955 1.4990001 4292474600
0.29837239 0.44398955 1.4990001 4292668911
0.29982096 0.4419162 1.4920001 4292928748
0.30266288 0.4419162 1.4920001 4292533225
0.3055048 0.4419162 1.4920001 4292203496
0.30710667 0.44013906 1.4860001 4292798696
0.31118858 0.4419162 1.4920001 4293328627
0.3140305 0.4419162 1.4920001 4293721854
0.31687242 0.4419162 1.4920001 4294180606
0.31971431 0.4419162 1.4920001 4294508286
0.3225562 0.4419162 1.4920001 4294901502
0.32539812 0.4419162 1.4920001 4294901502
0.32824004 0.4419162 1.4920001 4294901502
0.33108193 0.4419162 1.4920001 4294901502
0.33549049 0.44398955 1.4990001 4294901502
0.33834574 0.44398955 1.4990001 4294901502
0.34120098 0.44398955 1.4990001 4294901502
0.48638573 0.43095714 1.455 4284308824
0.48915714 0.43095714 1.455 4284307026
0.48990002 0.42918003 1.4490001 4284372306
0.49469998 0.43095714 1.455 4285358675
0.49542004 0.42918003 1.4490001 4286345010
0.49818003 0.42918003 1.4490001 4285350162
-0.3789162 0.19733907 0.66200006 4287728277
-0.37765527 0.19733907 0.66200006 4287662741
-0.37639433 0.19733907 0.66200006 4287662235
-0.37513337 0.19733907 0.66200006 4287334305
-0.37387243 0.19733907 0.66200006 4287072151
-0.38049144 0.2015124 0.67600006 4286676365
-0.37920383 0.2015124 0.67600006 4286347392
-0.37903431 0.20210858 0.67800003 4286215283
-0.37774286 0.20210858 0.67800003 4286150007
-0.37645143 0.20210858 0.67800003 4286150522
-0.37571335 0.20240667 0.67900002 4286215796
-0.37442002 0.20240667 0.67900002 4285953646
-0.37532476 0.20359905 0.68300003 4285691248
-0.3762143 0.20479143 0.68700004 4286084977
-0.37818003 0.20658001 0.69300002 4286542959
-0.37740383 0.2068781 0.69400001 4286017389
-0.37770763 0.20777239 0.69700003 4285491308
-0.37692001 0.20807047 0.69800001 4285163372
-0.37559047 0.20807047 0.69800001 4284900968
-0.37533337 0.20866668 0.70000005 4285097572
-0.37453431 0.20896477 0.70100003 4285359719
-0.37319905 0.20896477 0.70100003 4285359722
-0.37133336 0.20866668 0.70000005 4285359724
-0.45076001 0.34161714 1.146 4279374130
-0.44857714 0.34161714 1.146 4279439403
-0.44639429 0.34161714 1.146 4279570723
-0.44421142 0.34161714 1.146 4279570459
-0.44202858 0.34161714 1.146 4279570975
-0.43984571 0.34161714 1.146 4279637027
-0.43766287 0.34161714 1.146 4279702561
-0.43700004 0.34280956 1.1500001 4279768352
-0.43480957 0.34280956 1.1500001 4279899675
-0.43374762 0.34370381 1.153 4279899926
-0.43155143 0.34370381 1.153 4279899930
-0.43084478 0.3448962 1.1570001 4279900191
-0.42864096 0.3448962 1.1570001 4279899941
-0.42643717 0.3448962 1.1570001 4279965483
-0.42570001 0.34608856 1.161 4280097065
-0.42348856 0.34608856 1.161 4280228648
-0.42127714 0.34608856 1.161 4280425777
-0.42050955 0.34728098 1.1650001 4280360763
-0.41685426 0.34608856 1.161 4280294701
-0.41464284 0.34608856 1.161 4280163359
-0.41243142 0.34608856 1.161 4280097059
-0.40880668 0.3448962 1.1570001 4279768615
-0.40519714 0.34370381 1.153 4279440426
-0.40300095 0.34370381 1.153 4279045677
-0.40080476 0.34370381 1.153 4278653739
-0.39757147 0.34280956 1.1500001 4278916138
-0.39538097 0.34280956 1.1500001 4279177773
-0.39558384 0.3448962 1.1570001 4279308592
-0.39338002 0.3448962 1.1570001 4279505202
-0.40376195 0.41435242 1.3900001 4280427834
-0.39967147 0.41286194 1.3850001 4280491576
-0.39846671 0.41435242 1.3900001 4280556338
-0.39439526 0.41286194 1.3850001 4280817964
-0.39006001 0.41107336 1.3790001 4281080882
-0.38743335 0.41107336 1.3790001 4280885048
-0.38480669 0.41107336 1.3790001 4280689462
-0.38218004 0.41107336 1.3790001 4280624437
-0.37955335 0.41107336 1.3790001 4280559932
-0.37692666 0.41107336 1.3790001 4280953155
-0.37592861 0.41286194 1.3850001 4281345863
-0.37463811 0.41435242 1.3900001 4282265420
-0.37065241 0.41286194 1.3850001 4283254614
-0.36801431 0.41286194 1.3850001 4283850848
-0.3653762 0.41286194 1.3850001 4284508262
-0.36273813 0.41286194 1.3850001 4284512109
-0.36010003 0.41286194 1.3850001 4284579709
-0.34894478 0.40302479 1.3520001 4286285965
-0.34508857 0.40153429 1.3470001 4287991189
-0.34252289 0.40153429 1.3470001 4287533726
-0.33995715 0.40153429 1.3470001 4287075476
-0.33864382 0.40302479 1.3520001 4286742411
-0.3360686 0.40302479 1.3520001 4286418324
-0.33349335 0.40302479 1.3520001 4288588701
-0.3309181 0.40302479 1.3520001 4290751658
-0.32834288 0.40302479 1.3520001 4290162103
-0.32576764 0.40302479 1.3520001 4289573049
-0.32462665 0.40481335 1.358 4289772475
-0.32203999 0.40481335 1.358 4290036407
-0.31945333 0.40481335 1.358 4288521652
-0.31920001 0.4077943 1.368 4287072407
-0.3165943 0.4077943 1.368 4286212986
-0.31651336 0.41107336 1.3790001 4285361529
-0.31388667 0.41107336 1.3790001 4287000697
-0.31261429 0.41286194 1.3850001 4288648604
-0.31109527 0.41435242 1.3900001 4288921278
-0.30844763 0.41435242 1.3900001 4289236388
-0.30580002 0.41435242 1.3900001 4287061897
-0.30315241 0.41435242 1.3900001 4284964989
-0.30050477 0.41435242 1.3900001 4284899697
-0.29785717 0.41435242 1.3900001 4284899433
-0.17762572 0.2685838 0.90100002 4284113520
-0.17532381 0.26768953 0.89800006 4282594639
-0.17361334 0.26768953 0.89800006 4280685870
-0.16979714 0.2644105 0.88700002 4278788147
-0.16810761 0.2644105 0.88700002 4280101431
-0.16585524 0.26351622 0.88400006 4281413175
-0.16417143 0.26351622 0.88400006 4281414455
-0.16175239 0.2623238 0.88000005 4281414208
-0.1600762 0.2623238 0.88000005 4281545290
-0.1584 0.2623238 0.88000005 4281741643
-0.15672383 0.2623238 0.88000005 4283193420
-0.15504763 0.2623238 0.88000005 4284701776
-0.15372001 0.26291999 0.88200003 4284899413
-0.15203999 0.26291999 0.88200003 4285096546
-0.20520952 0.44296953 1.4860001 4282125351
-0.20237906 0.44296953 1.4860001 4280221953
-0.19954857 0.44296953 1.4860001 4278321928
-0.19592381 0.44118097 1.48 4280092175
-0.19310477 0.44118097 1.48 4281873211
-0.19028571 0.44118097 1.48 4283720552
-0.18746667 0.44118097 1.48 4285554791
-0.18464762 0.44118097 1.48 4285290597
-0.18182857 0.44118097 1.48 4285027695
-0.17900953 0.44118097 1.48 4286343290
-0.17619048 0.44118097 1.48 4287724677
-0.17337143 0.44118097 1.48 4288775057
-0.17055239 0.44118097 1.48 4289824928
-0.16773333 0.44118097 1.48 4290884271
-0.16558285 0.44296953 1.4860001 4291930530
-0.16275239 0.44296953 1.4860001 4290617237
-0.16056763 0.44475812 1.4920001 4289301148
-0.15846571 0.44684476 1.4990001 4289491107
-0.079397149 0.42120862 1.4130001 4280420353
-0.076705724 0.42120862 1.4130001 4278255977
-0.074328572 0.42299715 1.419 4286563793
-0.071322866 0.42120862 1.4130001 4294901479
-0.068922862 0.42299715 1.419 4294901502
-0.066500001 0.42478573 1.4250001 4294901502
-0.063785717 0.42478573 1.4250001 4294901502
-0.061071429 0.42478573 1.4250001 4294901502
-0.058111429 0.42299715 1.419 4294901502
-0.055642858 0.42478573 1.4250001 4294901502
-0.053151432 0.42657432 1.4310001 4294901502
-0.050425716 0.42657432 1.4310001 4294901502
-0.047500003 0.42478573 1.4250001 4294901502
-0.044785716 0.42478573 1.4250001 4294901502
-0.042071432 0.42478573 1.4250001 4294901502
-0.03952286 0.42657432 1.4310001 4294901502
-0.036642861 0.42478573 1.4250001 4294901502
-0.034071431 0.42657432 1.4310001 4294901502
-0.031214288 0.42478573 1.4250001 4294901502
-0.0285 0.42478573 1.4250001 4294901502
-0.025785714 0.42478573 1.4250001 4294901502
-0.023071429 0.42478573 1.4250001 4294901502
-0.020357145 0.42478573 1.4250001 4294901502
-0.017717144 0.42657432 1.4310001 4294901502
-0.01499143 0.42657432 1.4310001 4294901502
-0.012265715 0.42657432 1.4310001 4294901498
-0.0095400009 0.42657432 1.4310001 4294901494
-0.0068142861 0.42657432 1.4310001 4294901494
-0.0040885718 0.42657432 1.4310001 4294704886
-0.0013628573 0.42657432 1.4310001 4294571760
0.0013628573 0.42657432 1.4310001 4294240745
0.0040885718 0.42657432 1.4310001 4293977051
0.0067857145 0.42478573 1.4250001 4293123788
0.0095000006 0.42478573 1.4250001 4292334786
0.012162857 0.42299715 1.419 4291806392
0.014865714 0.42299715 1.419 4291282356
0.017568571 0.42299715 1.419 4290753712
0.020100001 0.41942 1.4070001 4290229668
0.022780001 0.41942 1.4070001 4289826457
0.025369523 0.41792953 1.4020001 4289435048
0.028040001 0.41792953 1.4020001 4290947768
0.030579049 0.41614094 1.396 4292536266
0.033238098 0.41614094 1.396 4292401372
0.035897143 0.41614094 1.396 4292334551
0.038556192 0.41614094 1.396 4292400851
0.041215237 0.41614094 1.396 4292466387
0.043685716 0.41435242 1.3900001 4292466388
0.046333339 0.41435242 1.3900001 4292531668
0.048980955 0.41435242 1.3900001 4292661972
0.051628575 0.41435242 1.3900001 4292793812
0.054276194 0.41435242 1.3900001 4292663764
0.05671905 0.41286194 1.3850001 4292531919
0.059357148 0.41286194 1.3850001 4292466378
0.061995246 0.41286194 1.3850001 4292400844
0.064353339 0.41107336 1.3790001 4292466383
0.066980004 0.41107336 1.3790001 4292597711
0.069354288 0.40958285 1.3740001 4292532431
0.071971431 0.40958285 1.3740001 4292532433
0.074588574 0.40958285 1.3740001 4292532692
0.077205718 0.40958285 1.3740001 4292597972
0.079822861 0.40958285 1.3740001 4292597973
0.082440004 0.40958285 1.3740001 4292663766
0.085057147 0.40958285 1.3740001 4292532951
0.08767429 0.40958285 1.3740001 4292401368
0.090291433 0.40958285 1.3740001 4292922073
0.092908576 0.40958285 1.3740001 4293456619
0.095873341 0.41107336 1.3790001 4294180606
0.098928578 0.41286194 1.3850001 4294901502
0.10193334 0.41435242 1.3900001 4294901502
0.10503238 0.41614094 1.396 4294901502
0.10769143 0.41614094 1.396 4294901502
0.11122 0.41942 1.4070001 4294901502
0.11438572 0.42120862 1.4130001 4294901502
0.11757429 0.42299715 1.419 4294901502
0.12078572 0.42478573 1.4250001 4294901502
0.1235 0.42478573 1.4250001 4294901502
0.1262143 0.42478573 1.4250001 4294901502
0.12892857 0.42478573 1.4250001 4294901502
0.13164286 0.42478573 1.4250001 4294901502
0.13435715 0.42478573 1.4250001 4294901502
0.13707143 0.42478573 1.4250001 4294901502
0.13978572 0.42478573 1.4250001 4294901502
0.1425 0.42478573 1.4250001 4294901502
0.14521429 0.42478573 1.4250001 4294901502
0.14730571 0.42299715 1.419 4294901502
0.15000857 0.42299715 1.419 4294901502
0.15335715 0.42478573 1.4250001 4294901502
0.15607144 0.42478573 1.4250001 4294901502
0.15878572 0.42478573 1.4250001 4294901502
0.16150001 0.42478573 1.4250001 4294901502
0.16421428 0.42478573 1.4250001 4294901502
0.16692857 0.42478573 1.4250001 4294901502
0.17035715 0.42657432 1.4310001 4294901502
0.17308287 0.42657432 1.4310001 4294901502
0.17580858 0.42657432 1.4310001 4294901502
0.1785343 0.42657432 1.4310001 4294901502
0.1805 0.42478573 1.4250001 4294901502
0.18321429 0.42478573 1.4250001 4294901502
0.18592857 0.42478573 1.4250001 4294901502
0.18784857 0.42299715 1.419 4294901502
0.19135715 0.42478573 1.4250001 4294901502
0.19325429 0.42299715 1.419 4294901502
0.19595714 0.42299715 1.419 4294901502
0.19866 0.42299715 1.419 4294901502
0.20136285 0.42299715 1.419 4294901502
0.20406571 0.42299715 1.419 4294901502
0.20676857 0.42299715 1.419 4294901502
0.20947143 0.42299715 1.419 4294901502
0.21217428 0.42299715 1.419 4294901502
0.21487714 0.42299715 1.419 4294901502
0.21850002 0.42478573 1.4250001 4294901502
0.22121429 0.42478573 1.4250001 4294901502
0.22298571 0.42299715 1.419 4294901502
0.22568858 0.42299715 1.419 4294901502
0.22839142 0.42299715 1.419 4294901502
0.23109429 0.42299715 1.419 4294901502
0.23280859 0.42120862 1.4130001 4294901502
0.23550002 0.42120862 1.4130001 4294901502
0.23819144 0.42120862 1.4130001 4294901502
0.29266191 0.44684476 1.4990001 4290100693
0.29551718 0.44684476 1.4990001 4291412698
0.29837239 0.44684476 1.4990001 4291152094
0.29982096 0.44475812 1.4920001 4290952147
0.30266288 0.44475812 1.4920001 4290293703
0.3055048 0.44475812 1.4920001 4289704912
0.30710667 0.44296953 1.4860001 4290754777
0.30993715 0.44296953 1.4860001 4291815653
0.31276762 0.44296953 1.4860001 4292601073
0.3155981 0.44296953 1.4860001 4293455606
0.31714284 0.44118097 1.48 4294179323
0.31996191 0.44118097 1.48 4294901244
0.32408953 0.44296953 1.4860001 4294901502
0.32692 0.44296953 1.4860001 4294901502
0.32975048 0.44296953 1.4860001 4294901502
0.33258098 0.44296953 1.4860001 4294901502
0.33676574 0.44475812 1.4920001 4294901502
0.34120098 0.44684476 1.4990001 4294901502
0.34244955 0.44475812 1.4920001 4294901502
0.48760289 0.43730575 1.4670001 4284505435
0.48638573 0.43372858 1.455 4284046420
0.48915714 0.43372858 1.455 4284110157
0.49192858 0.43372858 1.455 4284176220
0.49469998 0.43372858 1.455 4285633644
0.49747145 0.43372858 1.455 4287071308
0.49818003 0.43194005 1.4490001 4285420076
-0.37730569 0.1971 0.65700001 4287597205
-0.37834382 0.1983 0.66100001 4287728022
-0.37765527 0.19860001 0.66200006 4287793815
-0.3769629 0.19890001 0.66300005 4287859870
-0.37513337 0.19860001 0.66200006 4287465894
-0.38064954 0.20220001 0.67400002 4287137951
-0.37936571 0.20220001 0.67400002 4286743961
-0.37864286 0.2025 0.67500001 4286415490
-0.37791622 0.20280002 0.67600006 4286215532
-0.37774286 0.2034 0.67800003 4286083698
-0.37645143 0.2034 0.67800003 4286019193
-0.37571335 0.20370001 0.67900002 4286019695
-0.37442002 0.20370001 0.67900002 4285888357
-0.37367621 0.204 0.68000001 4285822314
-0.37457144 0.2052 0.68400002 4286018927
-0.37818003 0.20790002 0.69300002 4286280558
-0.37794766 0.20850001 0.69500005 4285886318
-0.37824953 0.20940001 0.69800001 4285557357
-0.37800002 0.21000001 0.70000005 4285294444
-0.37666669 0.21000001 0.70000005 4285097062
-0.37586954 0.21030001 0.70100003 4285228641
-0.37560284 0.21090001 0.70300001 4285359718
-0.37426382 0.21090001 0.70300001 4285359723
-0.37292477 0.21090001 0.70300001 4285359984
-0.45233336 0.34500003 1.1500001 4279505208
-0.45014289 0.34500003 1.1500001 4279832621
-0.44639429 0.34380001 1.146 4280161065
-0.44421142 0.34380001 1.146 4279964710
-0.44357145 0.34500003 1.1500001 4279768614
-0.43984571 0.34380001 1.146 4279768358
-0.43766287 0.34380001 1.146 4279833894
-0.43548 0.34380001 1.146 4279965223
-0.43329716 0.34380001 1.146 4280162336
-0.43374762 0.3459 1.153 4280097562
-0.43155143 0.3459 1.153 4280032796
-0.42935523 0.3459 1.153 4280032542
-0.42864096 0.34710002 1.1570001 4280032293
-0.42643717 0.34710002 1.1570001 4280229165
-0.42570001 0.34829998 1.161 4280426286
-0.42348856 0.34829998 1.161 4280491056
-0.42127714 0.34829998 1.161 4280558654
-0.42050955 0.34950003 1.1650001 4280492364
-0.4182905 0.34950003 1.1650001 4280492599
-0.41607144 0.34950003 1.1650001 4280557603
-0.41243142 0.34829998 1.161 4280622629
-0.40880668 0.34710002 1.1570001 4280095784
-0.40519714 0.3459 1.153 4279636778
-0.40195242 0.34500003 1.1500001 4279243821
-0.39976192 0.34500003 1.1500001 4278916397
-0.39757147 0.34500003 1.1500001 4279112493
-0.39538097 0.34500003 1.1500001 4279310126
-0.39558384 0.34710002 1.1570001 4279374639
-0.39338002 0.34710002 1.1570001 4279374384
-0.40376195 0.41700003 1.3900001 4280362039
-0.40111431 0.41700003 1.3900001 4280360502
-0.39846671 0.41700003 1.3900001 4280294964
-0.39439526 0.41550002 1.3850001 4280491058
-0.39175716 0.41550002 1.3850001 4280752950
-0.38743335 0.41370001 1.3790001 4280688186
-0.38480669 0.41370001 1.3790001 4280624439
-0.38218004 0.41370001 1.3790001 4280624948
-0.37817717 0.41220003 1.3740001 4280625724
-0.37556002 0.41220003 1.3740001 4280952900
-0.3743 0.41370001 1.3790001 4281280331
-0.37329048 0.41550002 1.3850001 4282533202
-0.37065241 0.41550002 1.3850001 4283787864
-0.36801431 0.41550002 1.3850001 4284115038
-0.3653762 0.41550002 1.3850001 4284508009
-0.36273813 0.41550002 1.3850001 4285299572
-0.36010003 0.41550002 1.3850001 4286087565
-0.34894478 0.40560004 1.3520001 4286878374
-0.34636953 0.40560004 1.3520001 4287731869
-0.34252289 0.40410006 1.3470001 4287139989
-0.33995715 0.40410006 1.3470001 4286615689
-0.33864382 0.40560004 1.3520001 4287468670
-0.3360686 0.40560004 1.3520001 4288321958
-0.33349335 0.40560004 1.3520001 4289245390
-0.3296943 0.40410006 1.3470001 4290167491
-0.32712862 0.40410006 1.3470001 4289834937
-0.32576764 0.40560004 1.3520001 4289573048
-0.32319239 0.40560004 1.3520001 4289641399
-0.32061717 0.40560004 1.3520001 4289774513
-0.31945333 0.40740001 1.358 4287859116
-0.31920001 0.4104 1.368 4286013588
-0.31798288 0.41220003 1.3740001 4285818749
-0.3153657 0.41220003 1.3740001 4285623675
-0.31388667 0.41370001 1.3790001 4287598458
-0.31261429 0.41550002 1.3850001 4289573538
-0.30997622 0.41550002 1.3850001 4288523467
-0.30844763 0.41700003 1.3900001 4287464090
-0.30470002 0.41550002 1.3850001 4286342761
-0.30206195 0.41550002 1.3850001 4285297520
-0.30050477 0.41700003 1.3900001 4285097335
-0.16750002 0.26250002 0.87500006 4279838247
-0.16640191 0.26340002 0.87800002 4280626738
-0.16472952 0.26340002 0.87800002 4281414452
-0.16305715 0.26340002 0.87800002 4281152310
-0.16138478 0.26340002 0.87800002 4280890178
-0.1600762 0.264 0.88000005 4281873998
-0.1584 0.264 0.88000005 4282858061
-0.15672383 0.264 0.88000005 4283782988
-0.15504763 0.264 0.88000005 4284701777
-0.15337144 0.264 0.88000005 4284900694
-0.15169525 0.264 0.88000005 4285165149
-0.15001905 0.264 0.88000005 4285295460
-0.20237906 0.44580001 1.4860001 4280090881
-0.19954857 0.44580001 1.4860001 4278846469
-0.19592381 0.44400001 1.48 4279501833
-0.19310477 0.44400001 1.48 4280161845
-0.19028571 0.44400001 1.48 4282734177
-0.18746667 0.44400001 1.48 4285359461
-0.18464762 0.44400001 1.48 4285226601
-0.18182857 0.44400001 1.48 4285093484
-0.17900953 0.44400001 1.48 4285816943
-0.17619048 0.44400001 1.48 4286544255
-0.17337143 0.44400001 1.48 4287790479
-0.17055239 0.44400001 1.48 4289102497
-0.16773333 0.44400001 1.48 4290290612
-0.16558285 0.44580001 1.4860001 4291537846
-0.16275239 0.44580001 1.4860001 4290615992
-0.16056763 0.44760004 1.4920001 4289761706
-0.15846571 0.44970003 1.4990001 4289162908
-0.079397149 0.42390004 1.4130001 4280485121
-0.076705724 0.42390004 1.4130001 4278255986
-0.074014291 0.42390004 1.4130001 4286563812
-0.071322866 0.42390004 1.4130001 4294901489
-0.068631433 0.42390004 1.4130001 4294901502
-0.06622 0.42570001 1.419 4294901502
-0.063517146 0.42570001 1.419 4294901502
-0.060814284 0.42570001 1.419 4294901502
-0.058111429 0.42570001 1.419 4294901502
-0.055408571 0.42570001 1.419 4294901502
-0.052705713 0.42570001 1.419 4294901502
-0.050002858 0.42570001 1.419 4294901502
-0.0473 0.42570001 1.419 4294901502
-0.044597141 0.42570001 1.419 4294901502
-0.041894287 0.42570001 1.419 4294901502
-0.039357144 0.42750004 1.4250001 4294901502
-0.03648857 0.42570001 1.419 4294901502
-0.033928569 0.42750004 1.4250001 4294901502
-0.031214288 0.42750004 1.4250001 4294901502
-0.028379999 0.42570001 1.419 4294901502
-0.025785714 0.42750004 1.4250001 4294901502
-0.022974286 0.42570001 1.419 4294901502
-0.020271428 0.42570001 1.419 4294901502
-0.017642858 0.42750004 1.4250001 4294901502
-0.014928573 0.42750004 1.4250001 4294901502
-0.012214286 0.42750004 1.4250001 4294901502
-0.0095000006 0.42750004 1.4250001 4294901502
-0.0067857145 0.42750004 1.4250001 4294901502
-0.0040714284 0.42750004 1.4250001 4294770430
-0.0013571429 0.42750004 1.4250001 4294704889
0.0013571429 0.42750004 1.4250001 4294573557
0.0040714284 0.42750004 1.4250001 4294442217
0.006757143 0.42570001 1.419 4293912542
0.0094600003 0.42570001 1.419 4293449164
0.012162857 0.42570001 1.419 4292988858
0.014865714 0.42570001 1.419 4292528564
0.017494287 0.42390004 1.4130001 4291935662
0.020100001 0.42210001 1.4070001 4291342748
0.022699049 0.42060003 1.4020001 4290154891
0.025369523 0.42060003 1.4020001 4288908959
0.028040001 0.42060003 1.4020001 4290552243
0.030579049 0.41880003 1.396 4292143049
0.033238098 0.41880003 1.396 4292204768
0.035897143 0.41880003 1.396 4292203482
0.038556192 0.41880003 1.396 4292334804
0.041215237 0.41880003 1.396 4292402644
0.043685716 0.41700003 1.3900001 4292466644
0.046333339 0.41700003 1.3900001 4292531925
0.048980955 0.41700003 1.3900001 4292597206
0.051628575 0.41700003 1.3900001 4292728277
0.054276194 0.41700003 1.3900001 4292598229
0.056923814 0.41700003 1.3900001 4292531918
0.059357148 0.41550002 1.3850001 4292466119
0.061995246 0.41550002 1.3850001 4292400586
0.06463334 0.41550002 1.3850001 4292466894
0.066980004 0.41370001 1.3790001 4292598990
0.069606669 0.41370001 1.3790001 4292532687
0.072233334 0.41370001 1.3790001 4292532433
0.074860007 0.41370001 1.3790001 4292597972
0.077205718 0.41220003 1.3740001 4292663766
0.079822861 0.41220003 1.3740001 4292664025
0.082440004 0.41220003 1.3740001 4292729817
0.085057147 0.41220003 1.3740001 4292664026
0.08767429 0.41220003 1.3740001 4292597976
0.090291433 0.41220003 1.3740001 4293120727
0.093246669 0.41370001 1.3790001 4293654762
0.095873341 0.41370001 1.3790001 4294246142
0.098928578 0.41550002 1.3850001 4294901502
0.10193334 0.41700003 1.3900001 4294901502
0.10503238 0.41880003 1.396 4294901502
0.10769143 0.41880003 1.396 4294901502
0.11122 0.42210001 1.4070001 4294901502
0.11438572 0.42390004 1.4130001 4294901502
0.11757429 0.42570001 1.419 4294901502
0.12027714 0.42570001 1.419 4294901502
0.12298 0.42570001 1.419 4294901502
0.1262143 0.42750004 1.4250001 4294901502
0.12892857 0.42750004 1.4250001 4294901502
0.13164286 0.42750004 1.4250001 4294901502
0.13435715 0.42750004 1.4250001 4294901502
0.13707143 0.42750004 1.4250001 4294901502
0.13919714 0.42570001 1.419 4294901502
0.1419 0.42570001 1.419 4294901502
0.14460286 0.42570001 1.419 4294901502
0.14730571 0.42570001 1.419 4294901502
0.15000857 0.42570001 1.419 4294901502
0.15271142 0.42570001 1.419 4294901502
0.15541428 0.42570001 1.419 4294901502
0.15811715 0.42570001 1.419 4294901502
0.16082001 0.42570001 1.419 4294901502
0.16352285 0.42570001 1.419 4294901502
0.16622572 0.42570001 1.419 4294901502
0.16964287 0.42750004 1.4250001 4294901502
0.17163143 0.42570001 1.419 4294901502
0.17433429 0.42570001 1.419 4294901502
0.17703715 0.42570001 1.419 4294901502
0.17974 0.42570001 1.419 4294901502
0.18244286 0.42570001 1.419 4294901502
0.18514571 0.42570001 1.419 4294901502
0.18784857 0.42570001 1.419 4294901502
0.19055143 0.42570001 1.419 4294901502
0.19325429 0.42570001 1.419 4294901502
0.19595714 0.42570001 1.419 4294901502
0.19782001 0.42390004 1.4130001 4294901502
0.20136285 0.42570001 1.419 4294901502
0.20320287 0.42390004 1.4130001 4294901502
0.20589429 0.42390004 1.4130001 4294901502
0.20858572 0.42390004 1.4130001 4294901502
0.21217428 0.42570001 1.419 4294901502
0.21487714 0.42570001 1.419 4294901502
0.21757999 0.42570001 1.419 4294901502
0.22028287 0.42570001 1.419 4294901502
0.22298571 0.42570001 1.419 4294901502
0.22568858 0.42570001 1.419 4294901502
0.22839142 0.42570001 1.419 4294901502
0.23011716 0.42390004 1.4130001 4294901502
0.23280859 0.42390004 1.4130001 4294901502
0.23550002 0.42390004 1.4130001 4294901502
0.23819144 0.42390004 1.4130001 4294901502
0.24088287 0.42390004 1.4130001 4294901480
0.29266191 0.44970003 1.4990001 4290561737
0.29413715 0.44760004 1.4920001 4292004043
0.29697907 0.44760004 1.4920001 4291611086
0.29982096 0.44760004 1.4920001 4291283642
0.30144572 0.44580001 1.4860001 4290488998
0.3042762 0.44580001 1.4860001 4289700024
0.30586666 0.44400001 1.48 4291018699
0.30868572 0.44400001 1.48 4292400087
0.31150478 0.44400001 1.48 4293254116
0.31432381 0.44400001 1.48 4294173934
0.31564286 0.44190001 1.473 4294376440
0.31844857 0.44190001 1.473 4294638843
0.32278097 0.44400001 1.48 4294376958
0.3256 0.44400001 1.48 4294049534
0.32686573 0.44190001 1.473 4294442750
0.33123812 0.44400001 1.48 4294901502
0.33405715 0.44400001 1.48 4294901502
0.33824193 0.44580001 1.4860001 4294901502
0.34244955 0.44760004 1.4920001 4294901502
0.34691143 0.44970003 1.4990001 4294901502
0.48760289 0.44010004 1.4670001 4284636504
0.49039719 0.44010004 1.4670001 4284243024
0.48915714 0.43650001 1.455 4284176968
0.49192858 0.43650001 1.455 4284111207
0.49469998 0.43650001 1.455 4285697926
0.49747145 0.43650001 1.455 4287273574
0.49818003 0.43470001 1.4490001 4286541639
-0.38086191 0.19955905 0.66100001 4287335571
-0.37960285 0.19955905 0.66100001 4287532694
-0.3789162 0.19986098 0.66200006 4287728790
-0.37765527 0.19986098 0.66200006 4287924887
-0.3769629 0.20016287 0.66300005 4288121499
-0.37513337 0.19986098 0.66200006 4287663007
-0.38121426 0.20378572 0.67500001 4287203740
-0.37992859 0.20378572 0.67500001 4286809498
-0.37864286 0.20378572 0.67500001 4286480006
-0.37791622 0.20408764 0.67600006 4286215794
-0.37774286 0.20469144 0.67800003 4286018934
-0.37645143 0.20469144 0.67800003 4285953403
-0.37516004 0.20469144 0.67800003 4285888375
-0.37442002 0.20499334 0.67900002 4285888883
-0.37312669 0.20499334 0.67900002 4285953649
-0.37402382 0.20620096 0.68300003 4285953391
-0.37708858 0.2086162 0.69100004 4286018159
-0.37740383 0.2095219 0.69400001 4285821040
-0.37770763 0.21042763 0.69700003 4285622893
-0.37800002 0.21133333 0.70000005 4285491307
-0.37720478 0.21163525 0.70100003 4285360230
-0.37694189 0.21223904 0.70300001 4285360226
-0.37613717 0.21254097 0.70400006 4285360228
-0.37479621 0.21254097 0.70400006 4285360230
-0.37345526 0.21254097 0.70400006 4285360235
-0.45233336 0.3471905 1.1500001 4279636273
-0.44857714 0.34598288 1.146 4280160555
-0.44639429 0.34598288 1.146 4280750633
-0.44421142 0.34598288 1.146 4280359463
-0.44357145 0.3471905 1.1500001 4279965991
-0.43984571 0.34598288 1.146 4279965990
-0.43919051 0.3471905 1.1500001 4279965731
-0.43700004 0.3471905 1.1500001 4280162337
-0.43480957 0.3471905 1.1500001 4280425245
-0.43374762 0.34809619 1.153 4280295194
-0.43155143 0.34809619 1.153 4280163869
-0.42935523 0.34809619 1.153 4280163616
-0.43012285 0.35051143 1.161 4280163622
-0.42791143 0.35051143 1.161 4280426029
-0.42570001 0.35051143 1.161 4280753710
-0.42348856 0.35051143 1.161 4280753711
-0.42418 0.35292667 1.169 4280754997
-0.42195335 0.35292667 1.169 4280688955
-0.4182905 0.35171905 1.1650001 4280688939
-0.41607144 0.35171905 1.1650001 4280885787
-0.41243142 0.35051143 1.161 4281145629
-0.40880668 0.34930381 1.1570001 4280488735
-0.40519714 0.34809619 1.153 4279898659
-0.40055427 0.34598288 1.146 4279505191
-0.39837143 0.34598288 1.146 4279177769
-0.39618859 0.34598288 1.146 4279309100
-0.39641237 0.34809619 1.153 4279505964
-0.39558384 0.34930381 1.1570001 4279375148
-0.39473999 0.35051143 1.161 4279309614
-0.39252856 0.35051143 1.161 4279572017
-0.39300668 0.35292667 1.169 4279834160
-0.39211717 0.35413432 1.1730001 4279703342
-0.38988289 0.35413432 1.1730001 4279572771
-0.38764861 0.35413432 1.1730001 4279769880
-0.40494764 0.41813815 1.3850001 4280558136
-0.40230954 0.41813815 1.3850001 4280361782
-0.39967147 0.41813815 1.3850001 4280229428
-0.39703336 0.41813815 1.3850001 4280098357
-0.39439526 0.41813815 1.3850001 4280229942
-0.39006001 0.4163267 1.3790001 4280426298
