# .PCD v0.7 - Point Cloud Data file format
VERSION 0.7
FIELDS x y z rgba
SIZE 4 4 4 4
TYPE F F F U
COUNT 1 1 1 1
WIDTH 1089
HEIGHT 1
VIEWPOINT 0 0 0 1 0 0 0
POINTS 1089
DATA ascii
0.37569427 0.29378191 0.82700002 4278258177
0.37635717 0.29307142 0.82500005 4278323969
0.37701237 0.29236096 0.82300001 4278259201
0.37858 0.29236096 0.82300001 4278258695
0.38014761 0.29236096 0.82300001 4278390029
0.38078764 0.29165047 0.82100004 4278520583
0.38142002 0.29094002 0.81900007 4278521089
0.38298002 0.29094002 0.81900007 4278520833
0.38360095 0.29022953 0.81700003 4278389761
0.38515714 0.29022953 0.81700003 4278258945
0.38671333 0.29022953 0.81700003 4278390785
0.38731906 0.28951907 0.81500006 4278520321
0.38982573 0.29022953 0.81700003 4278716930
0.39042383 0.28951907 0.81500006 4278978817
0.39197624 0.28951907 0.81500006 4278650625
0.39352858 0.28951907 0.81500006 4278388481
0.39508098 0.28951907 0.81500006 4278322945
0.39663336 0.28951907 0.81500006 4278323457
0.39818573 0.28951907 0.81500006 4278257921
0.39973813 0.28951907 0.81500006 4278257667
0.40129051 0.28951907 0.81500006 4278323206
0.40383142 0.29022953 0.81700003 4278388742
0.40439525 0.28951907 0.81500006 4278388999
0.40594763 0.28951907 0.81500006 4278388741
0.40750003 0.28951907 0.81500006 4278388740
0.4090524 0.28951907 0.81500006 4278389506
0.4106048 0.28951907 0.81500006 4278651393
0.41165143 0.28916383 0.81400001 4278913025
0.4132019 0.28916383 0.81400001 4278650625
0.41373333 0.28845334 0.81200004 4278388993
0.41528001 0.28845334 0.81200004 4278323458
0.4168267 0.28845334 0.81200004 4278323458
0.41837335 0.28845334 0.81200004 4278323969
0.41992 0.28845334 0.81200004 4278388737
0.42146668 0.28845334 0.81200004 4278322689
0.42301336 0.28845334 0.81200004 4278322689
0.42456001 0.28845334 0.81200004 4278388481
0.42610669 0.28845334 0.81200004 4278454017
0.42765334 0.28845334 0.81200004 4278454017
0.42814291 0.28774288 0.81000006 4278453507
0.42862478 0.28703237 0.80800003 4278453253
0.43016383 0.28703237 0.80800003 4278453251
0.43170288 0.28703237 0.80800003 4278387969
0.43324193 0.28703237 0.80800003 4278387457
0.43478096 0.28703237 0.80800003 4278321921
0.43632001 0.28703237 0.80800003 4278321921
-0.34615713 0.21964285 0.61500001 4281347367
-0.34498572 0.21964285 0.61500001 4281151273
-0.34325522 0.21928573 0.61400002 4280955692
-0.34208572 0.21928573 0.61400002 4280759344
-0.34091619 0.21928573 0.61400002 4281021493
-0.33974668 0.21928573 0.61400002 4281283638
-0.33857715 0.21928573 0.61400002 4281414200
-0.33685812 0.21892859 0.61300004 4281478713
-0.33623812 0.21928573 0.61400002 4281544506
-0.33561429 0.21964285 0.61500001 4281544764
-0.33444285 0.21964285 0.61500001 4281480255
-0.33381337 0.22000001 0.61600006 4281415738
-0.3348 0.22142857 0.62 4281543733
-0.33308098 0.22107142 0.61900002 4281672248
-0.33190191 0.22107142 0.61900002 4282200379
-0.33072287 0.22107142 0.61900002 4282728504
-0.33007622 0.22142857 0.62 4282137397
-0.32889524 0.22142857 0.62 4281546279
-0.32930002 0.22250001 0.62300003 4281414682
-0.32758668 0.22214288 0.62200004 4281283111
-0.32640192 0.22214288 0.62200004 4281282869
-0.3283543 0.22428572 0.62800002 4281282871
-0.32663715 0.22392859 0.62700003 4281085754
-0.32596192 0.22428572 0.62800002 4280888872
-0.32476571 0.22428572 0.62800002 4281282326
-0.32356954 0.22428572 0.62800002 4281676068
-0.37114 0.25821432 0.72300005 4281413938
-0.30992571 0.21642856 0.60600001 4281151796
-0.30877143 0.21642856 0.60600001 4281281846
-0.31320098 0.22035715 0.61700004 4281477684
-0.31202573 0.22035715 0.61700004 4281280562
-0.3108505 0.22035715 0.61700004 4281077296
-0.30967525 0.22035715 0.61700004 4281931310
-0.30900002 0.2207143 0.61800003 4282719789
-0.30782288 0.2207143 0.61800003 4282718765
-0.30664575 0.2207143 0.61800003 4282717724
-0.30596286 0.22107142 0.61900002 4281540108
-0.30478382 0.22107142 0.61900002 4280362784
-0.30507621 0.22214288 0.62200004 4280821044
-0.30486858 0.22285715 0.62400001 4281344827
-0.30368 0.22285715 0.62400001 4282131011
-0.30249143 0.22285715 0.62400001 4282917196
-0.30130285 0.22285715 0.62400001 4283056213
-0.30155715 0.22392859 0.62700003 4283192658
-0.29488668 0.22250001 0.62300003 4282138181
-0.29370001 0.22250001 0.62300003 4282071363
-0.29110476 0.22142857 0.62 4282004807
-0.29132667 0.22250001 0.62300003 4281872716
-0.29014 0.22250001 0.62300003 4281806152
-0.28895333 0.22250001 0.62300003 4281741124
-0.28776667 0.22250001 0.62300003 4281741629
-0.28933999 0.22464286 0.62900001 4281676086
-0.28768381 0.22428572 0.62800002 4281610805
-0.28648764 0.22428572 0.62800002 4281348149
-0.28438288 0.22357143 0.62600005 4281150761
-0.28319052 0.22357143 0.62600005 4281282333
-0.28154761 0.22321428 0.625 4281413930
-0.28035715 0.22321428 0.625 4281742136
-0.27093714 0.22428572 0.62800002 4282136632
-0.27017048 0.22464286 0.62900001 4281876030
-0.26897237 0.22464286 0.62900001 4281680955
-0.26862571 0.22535716 0.63100004 4281876280
-0.26742381 0.22535716 0.63100004 4282137408
-0.26141429 0.22535716 0.63100004 4282665293
-0.25938761 0.22464286 0.62900001 4282797141
-0.25818953 0.22464286 0.62900001 4282928221
-0.25780857 0.22535716 0.63100004 4283059282
-0.25742 0.22607143 0.63300002 4283191111
-0.25661907 0.22642857 0.634 4283321672
-0.25500858 0.22607143 0.63300002 4282993993
-0.25380287 0.22607143 0.63300002 4282732115
-0.25259715 0.22607143 0.63300002 4282667613
-0.25178856 0.22642857 0.634 4282668880
-0.2509762 0.22678572 0.63500005 4282667587
-0.25016004 0.22714287 0.63600004 4282666575
-0.24973144 0.22785714 0.63800001 4282861659
-0.24890572 0.22821429 0.63900006 4283122516
-0.24768859 0.22821429 0.63900006 4282990414
-0.24685715 0.22857144 0.64000005 4282861657
-0.2456381 0.22857144 0.64000005 4283123301
-0.24403715 0.22821429 0.63900006 4283391056
-0.24282002 0.22821429 0.63900006 4283059515
-0.24160288 0.22821429 0.63900006 4282797877
-0.24076192 0.22857144 0.64000005 4282071599
-0.23954287 0.22857144 0.64000005 4281348400
-0.23832382 0.22857144 0.64000005 4281146929
-0.23710477 0.22857144 0.64000005 4280884529
-0.2362543 0.22892858 0.64100003 4281679409
-0.23503335 0.22892858 0.64100003 4282466614
-0.23381238 0.22892858 0.64100003 4282663996
-0.24472383 0.2514286 0.70400006 4279832840
-0.24338287 0.2514286 0.70400006 4279766785
-0.24204193 0.2514286 0.70400006 4279700741
-0.24035904 0.25107142 0.70300001 4279701002
-0.23902 0.25107142 0.70300001 4279635974
-0.23230763 0.24678575 0.69100004 4279504134
-0.2296543 0.24535714 0.68700004 4279438857
-0.22834572 0.24535714 0.68700004 4279439369
-0.22703715 0.24535714 0.68700004 4279308042
-0.22572859 0.24535714 0.68700004 4279242507
-0.22442001 0.24535714 0.68700004 4278979853
-0.22311144 0.24535714 0.68700004 4278782986
-0.22180286 0.24535714 0.68700004 4278979080
-0.2204943 0.24535714 0.68700004 4279175432
-0.21918572 0.24535714 0.68700004 4279503881
-0.21787715 0.24535714 0.68700004 4279832846
-0.21625334 0.24500002 0.68600005 4280555539
-0.21494667 0.24500002 0.68600005 4281282838
-0.21301714 0.24428572 0.68400002 4281280794
-0.21140477 0.24392857 0.68300003 4281278998
-0.21010381 0.24392857 0.68300003 4279833362
-0.20849715 0.24357145 0.68200004 4278321446
-0.20719811 0.24357145 0.68200004 4282599483
-0.20589906 0.24357145 0.68200004 4286882894
-0.20460002 0.24357145 0.68200004 4290761570
-0.20330097 0.24357145 0.68200004 4294634814
-0.20200193 0.24357145 0.68200004 4294766363
-0.18318002 0.22821429 0.63900006 4294114856
-0.18110858 0.22714287 0.63600004 4289377046
-0.17989716 0.22714287 0.63600004 4284686603
-0.17868572 0.22714287 0.63600004 4281797121
-0.17803238 0.22785714 0.63800001 4278912778
-0.17681715 0.22785714 0.63800001 4278781972
-0.17505144 0.22714287 0.63600004 4278651146
-0.17466001 0.22821429 0.63900006 4281676289
-0.17344287 0.22821429 0.63900006 4284764165
-0.17249525 0.22857144 0.64000005 4283388938
-0.1712762 0.22857144 0.64000005 4282005019
-0.17005715 0.22857144 0.64000005 4281282605
-0.16910191 0.22892858 0.64100003 4280560941
-0.16788095 0.22892858 0.64100003 4280691757
-0.16744001 0.23000002 0.64400005 4280888373
-0.16569716 0.22928572 0.64200002 4280756798
-0.16421811 0.22892858 0.64100003 4280624951
-0.16299714 0.22892858 0.64100003 4280428336
-0.16202858 0.22928572 0.64200002 4280231721
-0.16080572 0.22928572 0.64200002 4280362019
-0.16405715 0.2357143 0.66000003 4280557596
-0.1628 0.2357143 0.66000003 4280229398
-0.16154286 0.2357143 0.66000003 4279965456
-0.16028571 0.2357143 0.66000003 4279571723
-0.15902857 0.2357143 0.66000003 4279242505
-0.15777142 0.2357143 0.66000003 4279045383
-0.16481429 0.24821432 0.69500005 4278848262
-0.16396096 0.24892856 0.69700003 4278848005
-0.16286667 0.24928571 0.69800001 4278782471
-0.16153714 0.24928571 0.69800001 4278782218
-0.15997809 0.24892856 0.69700003 4278847760
-0.15865049 0.24892856 0.69700003 4278716950
-0.15687144 0.24821432 0.69500005 4278586125
-0.1551 0.2475 0.69300002 4278979077
-0.1533362 0.24678575 0.69100004 4279437576
-0.15202002 0.24678575 0.69100004 4279109899
-0.14830476 0.24285714 0.68000001 4278782214
-0.14614478 0.24142858 0.67600006 4278651650
-0.14464286 0.24107143 0.67500001 4278455555
-0.14314476 0.2407143 0.67400002 4278651141
-0.14122953 0.23964286 0.671 4278848010
-0.13974287 0.23928571 0.67000002 4278978576
-0.13826001 0.23892859 0.66900003 4279109385
-0.13657621 0.2382143 0.66700006 4278913283
-0.13530573 0.2382143 0.66700006 4278782466
-0.13323143 0.23678572 0.66300005 4278716930
-0.13157047 0.23607142 0.66100001 4278651394
-0.12952286 0.23464285 0.65700001 4278782466
-0.12788096 0.23392858 0.65500003 4278979329
-0.12624668 0.2332143 0.65300006 4278848001
-0.12500286 0.2332143 0.65300006 4278782721
-0.12356953 0.23285714 0.65200001 4278782722
-0.12214001 0.23250002 0.65100002 4278848257
-0.12071429 0.23214287 0.65000004 4278782465
-0.11892476 0.23107143 0.64700001 4278716673
-0.11751048 0.23071429 0.64600003 4278782210
-0.11610001 0.23035716 0.64500004 4278913283
-0.11469334 0.23000002 0.64400005 4278913028
-0.1129381 0.22892858 0.64100003 4278847491
-0.11154287 0.22857144 0.64000005 4278978562
-0.11015144 0.22821429 0.63900006 4279176449
-0.1089343 0.22821429 0.63900006 4279109889
-0.10721143 0.22714287 0.63600004 4279044353
-0.106 0.22714287 0.63600004 4278847746
-0.10445905 0.22642857 0.634 4278716934
-0.10325143 0.22642857 0.634 4278913546
-0.10188286 0.22607143 0.63300002 4279108107
-0.10067715 0.22607143 0.63300002 4280357132
-0.099314287 0.2257143 0.63200003 4281680685
-0.097955242 0.22535716 0.63100004 4282404686
-0.096446671 0.22464286 0.62900001 4283194413
-0.095097147 0.22428572 0.62800002 4282337036
-0.093751431 0.22392859 0.62700003 4281545478
-0.092557147 0.22392859 0.62700003 4280227841
-0.091217145 0.22357143 0.62600005 4278976769
-0.090024769 0.22357143 0.62600005 4279175937
-0.088690475 0.22321428 0.625 4279309571
-0.087499999 0.22321428 0.625 4279637765
-0.086447619 0.22357143 0.62600005 4280031491
-0.085255243 0.22357143 0.62600005 4280161281
-0.084197149 0.22392859 0.62700003 4280290306
-0.083267614 0.22464286 0.62900001 4279962628
-0.08233048 0.22535716 0.63100004 4279700490
-0.081514291 0.22642857 0.634 4279307792
-0.080433339 0.22678572 0.63500005 4278915338
-0.079348572 0.22714287 0.63600004 4279243780
-0.078505717 0.22821429 0.63900006 4279571718
-0.077409528 0.22857144 0.64000005 4279767817
-0.076190479 0.22857144 0.64000005 4279964934
-0.07555715 0.23035716 0.64500004 4280029700
-0.074559048 0.23107143 0.64700001 4280097286
-0.07344 0.23142856 0.648 4280228104
-0.072205715 0.23142856 0.648 4280359944
-0.068480007 0.24000001 0.67200005 4280163076
-0.067200005 0.24000001 0.67200005 4280359942
-0.065920003 0.24000001 0.67200005 4280293897
-0.064832382 0.2407143 0.67400002 4280163849
-0.063737147 0.24142858 0.67600006 4280229130
-0.062634289 0.24214287 0.67800003 4280294927
-0.061071429 0.24107143 0.67500001 4280294676
-0.059785716 0.24107143 0.67500001 4280361486
-0.058499999 0.24107143 0.67500001 4280295177
-0.057214286 0.24107143 0.67500001 4280229129
-0.055597141 0.23964286 0.671 4280360201
-0.054319046 0.23964286 0.671 4280491273
-0.052961905 0.23928571 0.67000002 4280359689
-0.051762857 0.23964286 0.671 4280293895
-0.050409522 0.23928571 0.67000002 4280358661
-0.049133334 0.23928571 0.67000002 4280423684
-0.047928572 0.23964286 0.671 4280358915
-0.046650477 0.23964286 0.671 4280293890
-0.045913331 0.24249999 0.67900002 4280031233
-0.04462 0.24249999 0.67900002 4279769089
-0.043390475 0.24285714 0.68000001 4279835137
-0.042033333 0.24249999 0.67900002 4279900673
-0.040739998 0.24249999 0.67900002 4279834882
-0.039446667 0.24249999 0.67900002 4279834883
-0.038153335 0.24249999 0.67900002 4279769604
-0.036805719 0.24214287 0.67800003 4279769862
-0.035514288 0.24214287 0.67800003 4279703305
-0.034273334 0.24249999 0.67900002 4279636485
-0.032931432 0.24214287 0.67800003 4279636225
-0.031546671 0.24142858 0.67600006 4279701505
-0.03025905 0.24142858 0.67600006 4279636481
-0.02892857 0.24107143 0.67500001 4279572993
-0.027642857 0.24107143 0.67500001 4279374594
-0.026357144 0.24107143 0.67500001 4279177479
-0.025071429 0.24107143 0.67500001 4279110925
-0.023785714 0.24107143 0.67500001 4279045127
-0.022499999 0.24107143 0.67500001 4278848514
-0.021182857 0.2407143 0.67400002 4278652161
-0.019899048 0.2407143 0.67400002 4279045121
-0.012060001 0.21535715 0.60300004 4279242497
-0.010929525 0.21571429 0.60400003 4279177217
-0.0097790482 0.21571429 0.60400003 4279111425
-0.0086285714 0.21571429 0.60400003 4279111938
-0.0074780956 0.21571429 0.60400003 4279112193
-0.0063171433 0.21535715 0.60300004 4278980353
-0.0051685721 0.21535715 0.60300004 4278848513
-0.0040200003 0.21535715 0.60300004 4278849025
-0.0028714288 0.21535715 0.60300004 4278914561
-0.0017228572 0.21535715 0.60300004 4278980610
-0.00057428575 0.21535715 0.60300004 4279112706
0.00057428575 0.21535715 0.60300004 4279112195
0.0017228572 0.21535715 0.60300004 4279111172
0.0028714288 0.21535715 0.60300004 4279045638
0.0040200003 0.21535715 0.60300004 4278980105
0.0051685721 0.21535715 0.60300004 4279045645
0.0063171433 0.21535715 0.60300004 4279046153
0.0074657151 0.21535715 0.60300004 4279242758
0.0086285714 0.21571429 0.60400003 4279440648
0.0097628571 0.21535715 0.60300004 4279243787
0.010929525 0.21571429 0.60400003 4279112714
0.01212 0.21642856 0.60600001 4279244553
0.013274285 0.21642856 0.60600001 4279377427
0.014428572 0.21642856 0.60600001 4279311901
0.015608573 0.21678573 0.60700005 4279246352
0.016737143 0.21642856 0.60600001 4279245572
0.017920954 0.21678573 0.60700005 4279244808
0.019077145 0.21678573 0.60700005 4279179277
0.020200001 0.21642856 0.60600001 4279114001
0.021389525 0.21678573 0.60700005 4279244565
0.022545716 0.21678573 0.60700005 4279375377
0.023701908 0.21678573 0.60700005 4279310093
0.024858097 0.21678573 0.60700005 4279245069
0.026014287 0.21678573 0.60700005 4279244557
0.027170479 0.21678573 0.60700005 4279309579
0.028326668 0.21678573 0.60700005 4279375113
0.029531429 0.21714287 0.60800004 4279440645
0.030689526 0.21714287 0.60800004 4279309570
0.031900004 0.21750002 0.60900003 4279178498
0.033059999 0.21750002 0.60900003 4279374338
0.034219999 0.21750002 0.60900003 4279635974
0.035380002 0.21750002 0.60900003 4279635466
0.036540002 0.21750002 0.60900003 4279634952
0.037823807 0.21821429 0.611 4279504391
0.038987618 0.21821429 0.611 4279373830
0.040217146 0.21857144 0.61200005 4279373574
0.041315239 0.21821429 0.611 4279309572
0.042548575 0.21857144 0.61200005 4279309571
0.043714289 0.21857144 0.61200005 4279374082
0.045026667 0.21928573 0.61400002 4279439105
0.046196189 0.21928573 0.61400002 4279569923
0.047365714 0.21928573 0.61400002 4279635717
0.048614286 0.21964285 0.61500001 4279767301
0.049866669 0.22000001 0.61600006 4279636230
0.051040005 0.22000001 0.61600006 4279570952
0.052298095 0.22035715 0.61700004 4280030986
0.053473335 0.22035715 0.61700004 4280491278
0.054737143 0.2207143 0.61800003 4280294675
0.055914287 0.2207143 0.61800003 4280098318
0.05709143 0.2207143 0.61800003 4280097801
0.05836286 0.22107142 0.61900002 4280097290
0.059541903 0.22107142 0.61900002 4280163084
0.06072095 0.22107142 0.61900002 4280296970
0.061999999 0.22142857 0.62 4280099337
0.063486665 0.22250001 0.62300003 4279901705
0.064777143 0.22285715 0.62400001 4279966729
0.065965712 0.22285715 0.62400001 4280031749
0.067261904 0.22321428 0.625 4279769089
0.068452381 0.22321428 0.625 4279441161
0.069642857 0.22321428 0.625 4279964946
0.070946671 0.22357143 0.62600005 4280554767
0.072254293 0.22392859 0.62700003 4280292876
0.073565714 0.22428572 0.62800002 4280096519
0.074761905 0.22428572 0.62800002 4280161794
0.076079048 0.22464286 0.62900001 4280226819
0.077277139 0.22464286 0.62900001 4280161285
0.078849532 0.2257143 0.63200003 4280095751
0.080180004 0.22607143 0.63300002 4280095754
0.081771433 0.22714287 0.63600004 4280096009
0.08324381 0.22785714 0.63800001 4279964681
0.084591433 0.22821429 0.63900006 4279833607
0.085808575 0.22821429 0.63900006 4279768582
0.087161906 0.22857144 0.64000005 4279703820
0.088380955 0.22857144 0.64000005 4280228371
0.089740001 0.22892858 0.64100003 4280752932
0.091386676 0.23000002 0.64400005 4280556853
0.092757143 0.23035716 0.64500004 4280360737
0.094422854 0.23142856 0.648 4280032782
0.095657147 0.23142856 0.648 4279705095
0.097340003 0.23250002 0.65100002 4279966721
0.098580003 0.23250002 0.65100002 4280161542
0.099973336 0.23285714 0.65200001 4280096523
0.10137048 0.2332143 0.65300006 4280031497
0.10292857 0.23392858 0.65500003 4280162055
0.10513048 0.23607142 0.66100001 4280292868
0.10638952 0.23607142 0.66100001 4279765249
0.10781144 0.23642859 0.66200006 4279304496
0.10956667 0.23750001 0.66500002 4283386976
0.11083333 0.23750001 0.66500002 4287403824
0.11243715 0.2382143 0.66700006 4282856705
0.11370763 0.2382143 0.66700006 4278321415
0.1149781 0.2382143 0.66700006 4279306509
0.11659715 0.23892859 0.66900003 4280359953
0.11787143 0.23892859 0.66900003 4281086997
0.13726667 0.25357142 0.71000004 4282137649
0.13861905 0.25357142 0.71000004 4282071601
0.13997144 0.25357142 0.71000004 4282005562
0.14152285 0.25392857 0.71100003 4282270532
0.1426762 0.25357142 0.71000004 4282598729
0.14362286 0.25285715 0.708 4282664526
0.14538096 0.25357142 0.71000004 4282792021
0.14611334 0.2525 0.70700002 4283187292
0.14892001 0.25500003 0.71400005 4283655773
0.15028 0.25500003 0.71400005 4284048990
0.3927781 0.46464288 1.3010001 4278453761
0.39221811 0.46107143 1.291 4278519297
0.39039716 0.45607147 1.2770001 4278453505
0.39006093 0.45285714 1.268 4278322178
0.39092857 0.45107141 1.263 4278387715
0.3933343 0.45107141 1.263 4278387714
0.3944867 0.44964287 1.2590001 4278387714
0.39530861 0.44785717 1.2540001 4278322177
0.39769718 0.44785717 1.2540001 4278387457
0.40008575 0.44785717 1.2540001 4278452994
0.40086955 0.44607145 1.2490001 4278321923
0.40195712 0.44464284 1.245 4278256642
0.40432858 0.44464284 1.245 4278256641
0.40669999 0.44464284 1.245 4278256641
0.40742859 0.44285715 1.24 4278256385
0.4084686 0.4414286 1.2360001 4278322177
0.40949339 0.44000003 1.2320001 4278321921
0.40883145 0.43678573 1.223 4278321921
0.41116098 0.43678573 1.223 4278387457
0.4121381 0.43535715 1.2190001 4278518273
0.41446003 0.43535715 1.2190001 4278387201
0.41507241 0.43357146 1.2140001 4278256385
0.41600955 0.43214285 1.21 4278256385
0.41831428 0.43214285 1.21 4278256385
0.42061907 0.43214285 1.21 4278256385
0.42152572 0.43071431 1.2060001 4278256385
0.42382288 0.43071431 1.2060001 4278256385
0.42612001 0.43071431 1.2060001 4278256385
0.4269962 0.42928571 1.202 4278256897
0.42928571 0.42928571 1.202 4278322946
0.42978001 0.42750001 1.197 4278454275
0.43061623 0.42607147 1.1930001 4278585606
0.4328886 0.42607147 1.1930001 4278453514
0.43516099 0.42607147 1.1930001 4278387718
0.43596667 0.42464286 1.189 4278387714
0.43823144 0.42464286 1.189 4278453249
0.44049618 0.42464286 1.189 4278387713
0.44276097 0.42464286 1.189 4278387713
0.44502571 0.42464286 1.189 4278322177
0.44578573 0.42321432 1.1850001 4278256641
0.44653052 0.42178574 1.1810001 4278256641
0.44878006 0.42178574 1.1810001 4278257153
0.45102957 0.42178574 1.1810001 4278257153
0.45327911 0.42178574 1.1810001 4278256641
0.45398575 0.42035717 1.177 4278322177
0.45622763 0.42035717 1.177 4278322433
0.45846951 0.42035717 1.177 4278322177
0.46071142 0.42035717 1.177 4278322433
0.46295333 0.42035717 1.177 4278322177
0.46519524 0.42035717 1.177 4278256385
0.46743715 0.42035717 1.177 4278321921
0.46967906 0.42035717 1.177 4278321921
0.47192097 0.42035717 1.177 4278387457
0.47416288 0.42035717 1.177 4278387713
0.47640476 0.42035717 1.177 4278321921
0.47864667 0.42035717 1.177 4278256385
0.48088858 0.42035717 1.177 4278256385
0.48313048 0.42035717 1.177 4278321921
0.48537239 0.42035717 1.177 4278256385
0.48595718 0.41892859 1.1730001 4278256385
0.48819143 0.41892859 1.1730001 4278257409
0.49042574 0.41892859 1.1730001 4278258177
0.49266002 0.41892859 1.1730001 4278257409
0.49489433 0.41892859 1.1730001 4278322945
0.49712861 0.41892859 1.1730001 4278256897
0.49936292 0.41892859 1.1730001 4278256641
0.37569427 0.29535714 0.82700002 4278257921
0.37635717 0.2946429 0.82500005 4278323969
0.37792858 0.2946429 0.82500005 4278258433
0.37950003 0.2946429 0.82500005 4278258699
0.38014761 0.29392856 0.82300001 4278323990
0.38078764 0.29321429 0.82100004 4278454795
0.38142002 0.29250002 0.81900007 4278455553
0.38204476 0.29178572 0.81700003 4278521345
0.38360095 0.29178572 0.81700003 4278389761
0.38515714 0.29178572 0.81700003 4278324993
0.38671333 0.29178572 0.81700003 4278390273
0.38731906 0.29107144 0.81500006 4278454786
0.38887146 0.29107144 0.81500006 4278585603
0.39042383 0.29107144 0.81500006 4278716674
0.39197624 0.29107144 0.81500006 4278519810
0.39352858 0.29107144 0.81500006 4278388993
0.39508098 0.29107144 0.81500006 4278323713
0.39663336 0.29107144 0.81500006 4278323969
0.39769715 0.29071429 0.81400001 4278323458
0.39924762 0.29071429 0.81400001 4278323459
0.40079811 0.29071429 0.81400001 4278388740
0.40284288 0.29107144 0.81500006 4278454019
0.40389904 0.29071429 0.81400001 4278388995
0.40544954 0.29071429 0.81400001 4278389507
0.40700001 0.29071429 0.81400001 4278389507
0.40855047 0.29071429 0.81400001 4278389506
0.41010097 0.29071429 0.81400001 4278520321
0.41064003 0.28999999 0.81200004 4278650881
0.41218668 0.28999999 0.81200004 4278519809
0.41373333 0.28999999 0.81200004 4278388994
0.41528001 0.28999999 0.81200004 4278388740
0.4168267 0.28999999 0.81200004 4278388483
0.41734287 0.28928575 0.81000006 4278454018
0.41992 0.28999999 0.81200004 4278519553
0.42146668 0.28999999 0.81200004 4278387969
0.42197147 0.28928575 0.81000006 4278321665
0.42351431 0.28928575 0.81000006 4278453249
0.42610669 0.28999999 0.81200004 4278518785
0.42554668 0.28857142 0.80800003 4278453505
0.42814291 0.28928575 0.81000006 4278454529
0.42862478 0.28857142 0.80800003 4278388737
0.43016383 0.28857142 0.80800003 4278323201
0.43170288 0.28857142 0.80800003 4278322689
0.43324193 0.28857142 0.80800003 4278321921
0.43478096 0.28857142 0.80800003 4278321922
0.43632001 0.28857142 0.80800003 4278321665
-0.34615713 0.22081429 0.61500001 4281346608
-0.34386382 0.2200962 0.61300004 4281151023
-0.34269622 0.2200962 0.61300004 4280759598
-0.34152856 0.2200962 0.61300004 4280431667
-0.34036097 0.2200962 0.61300004 4280824631
-0.33919334 0.2200962 0.61300004 4281283128
-0.33802575 0.2200962 0.61300004 4281676089
-0.33685812 0.2200962 0.61300004 4282135098
-0.33569047 0.2200962 0.61300004 4281807675
-0.33397716 0.21973716 0.61200005 4281544505
-0.33118001 0.21866001 0.60900003 4281480504
-0.33002001 0.21866001 0.60900003 4281413430
-0.3348 0.22260952 0.62 4281739571
-0.33308098 0.22225048 0.61900002 4282131764
-0.33190191 0.22225048 0.61900002 4283390262
-0.33072287 0.22225048 0.61900002 4284695612
-0.33007622 0.22260952 0.62 4283385411
-0.32889524 0.22260952 0.62 4282071351
-0.32758668 0.22332764 0.62200004 4281546289
-0.32640192 0.22332764 0.62200004 4281611319
-0.3283543 0.22548191 0.62800002 4281676859
-0.32663715 0.22512287 0.62700003 4281676863
-0.32596192 0.22548191 0.62800002 4281676599
-0.31338859 0.21758287 0.60600001 4281938736
-0.31223428 0.21758287 0.60600001 4282200626
-0.30992571 0.21758287 0.60600001 4281085748
-0.30877143 0.21758287 0.60600001 4281084212
-0.31269336 0.22117336 0.61600006 4281083445
-0.31152004 0.22117336 0.61600006 4281213750
-0.31034669 0.22117336 0.61600006 4281346373
-0.30867144 0.22081429 0.61500001 4283852885
-0.30850002 0.22153239 0.61700004 4286410077
-0.30682668 0.22117336 0.61600006 4285952869
-0.30614954 0.22153239 0.61700004 4285489219
-0.30497432 0.22153239 0.61700004 4283059745
-0.30379906 0.22153239 0.61700004 4280625709
-0.30164286 0.22081429 0.61500001 4281016633
-0.30047143 0.22081429 0.61500001 4281412427
-0.29930001 0.22081429 0.61500001 4283058781
-0.29764381 0.22045524 0.61400002 4284697691
-0.29647428 0.22045524 0.61400002 4284567386
-0.29578573 0.22081429 0.61500001 4284504654
-0.29461429 0.22081429 0.61500001 4282857539
-0.29344285 0.22081429 0.61500001 4281284670
-0.29441336 0.22332764 0.62200004 4281675837
-0.29228571 0.22260952 0.62 4281674048
-0.29110476 0.22260952 0.62 4281674565
-0.28992382 0.22260952 0.62 4281413195
-0.28827715 0.22225048 0.61900002 4281217093
-0.2866343 0.22189143 0.61800003 4281414207
-0.28545716 0.22189143 0.61800003 4281610811
-0.28474003 0.22225048 0.61900002 4281414456
-0.28401905 0.22260952 0.62 4281217590
-0.28283811 0.22260952 0.62 4281086260
-0.2834743 0.22404571 0.62400001 4281019187
-0.28273809 0.22440475 0.625 4281017394
-0.28109714 0.22404571 0.62400001 4281017913
-0.27990857 0.22404571 0.62400001 4281280577
-0.26921141 0.22404571 0.62400001 4281152572
-0.26802287 0.22404571 0.62400001 4280889152
-0.26768956 0.22476383 0.62600005 4280627772
-0.26649716 0.22476383 0.62600005 4281153081
-0.26742381 0.22655906 0.63100004 4281676852
-0.2605857 0.22584094 0.62900001 4282467666
-0.25897524 0.22548191 0.62800002 4282598992
-0.25777903 0.22548191 0.62800002 4282796110
-0.2561743 0.22512287 0.62700003 4282992967
-0.25701335 0.2269181 0.63200003 4282929472
-0.25621429 0.22727714 0.63300002 4282861120
-0.25460571 0.2269181 0.63200003 4282729281
-0.25340194 0.2269181 0.63200003 4282597962
-0.2521981 0.2269181 0.63200003 4282466898
-0.25139141 0.22727714 0.63300002 4282335820
-0.25058097 0.22763619 0.634 4282336069
-0.24976669 0.22799526 0.63500005 4282401102
-0.24894859 0.22835431 0.63600004 4282400854
-0.2485162 0.22907238 0.63800001 4282466130
-0.24768859 0.22943144 0.63900006 4282597199
-0.24685715 0.22979049 0.64000005 4282728533
-0.2456381 0.22979049 0.64000005 4282859867
-0.24403715 0.22943144 0.63900006 4283058764
-0.24320002 0.22979049 0.64000005 4282995517
-0.24198097 0.22979049 0.64000005 4282931001
-0.24076192 0.22979049 0.64000005 4282070581
-0.23954287 0.22979049 0.64000005 4281281332
-0.23832382 0.22979049 0.64000005 4281475636
-0.23710477 0.22979049 0.64000005 4281674291
-0.23588574 0.22979049 0.64000005 4282138162
-0.23466669 0.22979049 0.64000005 4282597689
-0.23344763 0.22979049 0.64000005 4282795841
-0.23222858 0.22979049 0.64000005 4283057990
-0.24204193 0.25276953 0.70400006 4280161296
-0.24035904 0.25241047 0.70300001 4279965711
-0.23902 0.25241047 0.70300001 4279833868
-0.2296543 0.24666573 0.68700004 4279373325
-0.22801335 0.24630667 0.68600005 4279373326
-0.22703715 0.24666573 0.68700004 4279242254
-0.22572859 0.24666573 0.68700004 4279110925
-0.22442001 0.24666573 0.68700004 4278782989
-0.22311144 0.24666573 0.68700004 4278520584
-0.22180286 0.24666573 0.68700004 4278782724
-0.2204943 0.24666573 0.68700004 4279044614
-0.21918572 0.24666573 0.68700004 4279372297
-0.21756001 0.24630667 0.68600005 4279766025
-0.21625334 0.24630667 0.68600005 4280621834
-0.21494667 0.24630667 0.68600005 4281544719
-0.21301714 0.24558859 0.68400002 4281280788
-0.21140477 0.24522951 0.68300003 4281082392
-0.21010381 0.24522951 0.68300003 4279769373
-0.20849715 0.24487048 0.68200004 4278459421
-0.20719811 0.24487048 0.68200004 4280426526
-0.20589906 0.24487048 0.68200004 4282411559
-0.2049 0.24522951 0.68300003 4288394289
-0.20330097 0.24487048 0.68200004 4294366511
-0.20200193 0.24487048 0.68200004 4294639149
-0.18082383 0.22799526 0.63500005 4286215435
-0.17989716 0.22835431 0.63600004 4279111953
-0.17868572 0.22835431 0.63600004 4279304727
-0.17747429 0.22835431 0.63600004 4279504912
-0.17626286 0.22835431 0.63600004 4278916618
-0.17505144 0.22835431 0.63600004 4278388231
-0.17466001 0.22943144 0.63900006 4282073603
-0.17317143 0.22907238 0.63800001 4285746950
-0.1719562 0.22907238 0.63800001 4283718664
-0.1712762 0.22979049 0.64000005 4281741849
-0.17005715 0.22979049 0.64000005 4280824106
-0.16883811 0.22979049 0.64000005 4279905834
-0.16788095 0.23014954 0.64100003 4280364331
-0.16692001 0.23050858 0.64200002 4280822831
-0.16569716 0.23050858 0.64200002 4280691251
-0.16421811 0.23014954 0.64100003 4280559409
-0.16299714 0.23014954 0.64100003 4280362542
-0.16202858 0.23050858 0.64200002 4280165416
-0.16080572 0.23050858 0.64200002 4280558370
-0.1610743 0.23266286 0.648 4280950812
-0.1628 0.23697144 0.66000003 4280556822
-0.16154286 0.23697144 0.66000003 4280228113
-0.1678143 0.24810192 0.69100004 4279834124
-0.15902857 0.23697144 0.66000003 4279439370
-0.15777142 0.23697144 0.66000003 4279110663
-0.15675142 0.23733048 0.66100001 4278848262
-0.16302 0.24882001 0.69300002 4278782213
-0.1617 0.24882001 0.69300002 4278716935
-0.16130571 0.25025621 0.69700003 4278716425
-0.15951906 0.24953811 0.69500005 4278716428
-0.15796761 0.24917905 0.69400001 4278585103
-0.15641999 0.24882001 0.69300002 4278454281
-0.15442857 0.24774289 0.69000006 4279175428
-0.15244858 0.24666573 0.68700004 4279961861
-0.15092002 0.24630667 0.68600005 4279502598
-0.14830476 0.2441524 0.68000001 4279044356
-0.14614478 0.24271621 0.67600006 4278848003
-0.14464286 0.24235715 0.67500001 4278651396
-0.14314476 0.24199811 0.67400002 4278782470
-0.14144 0.24128002 0.67200005 4278913032
-0.13995144 0.24092095 0.671 4279174922
-0.13826001 0.24020287 0.66900003 4279437062
-0.13637143 0.23912571 0.66600001 4279109634
-0.13510285 0.23912571 0.66600001 4278782210
-0.13323143 0.23804858 0.66300005 4278651394
-0.13157047 0.23733048 0.66100001 4278520322
-0.12972 0.23625335 0.65800005 4278782467
-0.12788096 0.23517621 0.65500003 4279110146
-0.12663335 0.23517621 0.65500003 4278913537
-0.12500286 0.2344581 0.65300006 4278782721
-0.12356953 0.23409905 0.65200001 4278848514
-0.12214001 0.23374 0.65100002 4278978817
-0.12071429 0.23338097 0.65000004 4278781697
-0.11910857 0.23266286 0.648 4278650884
-0.11769238 0.23230381 0.64700001 4278717191
-0.11628 0.23194477 0.64600003 4278782469
-0.11469334 0.23122668 0.64400005 4278782468
-0.1129381 0.23014954 0.64100003 4278782212
-0.11154287 0.22979049 0.64000005 4278782213
-0.11015144 0.22943144 0.63900006 4278847749
-0.10876381 0.22907238 0.63800001 4278979077
-0.10721143 0.22835431 0.63600004 4279109892
-0.10583334 0.22799526 0.63500005 4279044611
-0.10445905 0.22763619 0.634 4278979079
-0.10325143 0.22763619 0.634 4279306762
-0.10188286 0.22727714 0.63300002 4279699465
-0.10067715 0.22727714 0.63300002 4280427016
-0.099314287 0.2269181 0.63200003 4281153815
-0.097955242 0.22655906 0.63100004 4281022247
-0.096446671 0.22584094 0.62900001 4280884759
-0.094945721 0.22512287 0.62700003 4280026374
-0.093751431 0.22512287 0.62700003 4279174148
-0.092409529 0.22476383 0.62600005 4279436035
-0.091217145 0.22476383 0.62600005 4279699970
-0.089880951 0.22440475 0.625 4280031490
-0.088690475 0.22440475 0.625 4280359682
-0.087499999 0.22440475 0.625 4280098307
-0.086447619 0.22476383 0.62600005 4279899395
-0.085255243 0.22476383 0.62600005 4279373315
-0.084197149 0.22512287 0.62700003 4278849285
-0.08313524 0.22548191 0.62800002 4279439367
-0.082069524 0.22584094 0.62900001 4280030984
-0.081128575 0.22655906 0.63100004 4279770633
-0.080940008 0.22943144 0.63900006 4279505925
-0.079722866 0.22943144 0.63900006 4279702786
-0.078628577 0.22979049 0.64000005 4279964425
-0.077530481 0.23014954 0.64100003 4280160529
-0.07642857 0.23050858 0.64200002 4280422672
-0.07555715 0.23158573 0.64500004 4280357135
-0.074559048 0.23230381 0.64700001 4280294417
-0.07344 0.23266286 0.648 4280424980
-0.072428577 0.23338097 0.65000004 4280621582
-0.071190484 0.23338097 0.65000004 4280621577
-0.068378091 0.24092095 0.671 4280621577
-0.066999994 0.24056192 0.67000002 4280621321
-0.065821901 0.24092095 0.671 4280489993
-0.064543813 0.24092095 0.671 4280359435
-0.063548572 0.24199811 0.67400002 4280491277
-0.06244953 0.24271621 0.67600006 4280622350
-0.061071429 0.24235715 0.67500001 4280622607
-0.059520006 0.24128002 0.67200005 4280622606
-0.058153335 0.24092095 0.671 4280491789
-0.056366667 0.23876667 0.66500002 4280426510
-0.055680003 0.24128002 0.67200005 4280558095
-0.054238096 0.24056192 0.67000002 4280754704
-0.052882861 0.24020287 0.66900003 4280689425
-0.051685713 0.24056192 0.67000002 4280623630
-0.050409522 0.24056192 0.67000002 4280623371
-0.049133334 0.24056192 0.67000002 4280620297
-0.047857143 0.24056192 0.67000002 4280555016
-0.046580952 0.24056192 0.67000002 4280490247
-0.04530476 0.24056192 0.67000002 4280227847
-0.044028569 0.24056192 0.67000002 4280031495
-0.043262858 0.2434343 0.67800003 4279966215
-0.04197143 0.2434343 0.67800003 4279901190
-0.040679999 0.2434343 0.67800003 4280032774
-0.039446667 0.24379334 0.67900002 4280163078
-0.038097143 0.2434343 0.67800003 4280030727
-0.036697146 0.24271621 0.67600006 4279965196
-0.035409529 0.24271621 0.67600006 4279899665
-0.03422286 0.2434343 0.67800003 4279899657
-0.032785714 0.24235715 0.67500001 4279899650
-0.03136 0.24128002 0.67200005 4279899651
-0.030169524 0.24199811 0.67400002 4279768579
-0.028885717 0.24199811 0.67400002 4279637508
-0.027601905 0.24199811 0.67400002 4279375621
-0.026318096 0.24199811 0.67400002 4279111697
-0.025034286 0.24199811 0.67400002 4279045149
-0.023750478 0.24199811 0.67400002 4278979345
-0.022466667 0.24199811 0.67400002 4278913542
-0.021057144 0.24056192 0.67000002 4278913796
-0.019780952 0.24056192 0.67000002 4279372803
-0.018504761 0.24056192 0.67000002 4279897090
-0.012060001 0.21650574 0.60300004 4278980103
-0.010911429 0.21650574 0.60300004 4279046407
-0.0097790482 0.21686476 0.60400003 4279111428
-0.0086285714 0.21686476 0.60400003 4279111682
-0.0074780956 0.21686476 0.60400003 4279111426
-0.0063171433 0.21650574 0.60300004 4278980099
-0.0051685721 0.21650574 0.60300004 4278849026
-0.0040200003 0.21650574 0.60300004 4278849025
-0.0028714288 0.21650574 0.60300004 4278849282
-0.0017228572 0.21650574 0.60300004 4279046402
-0.00057428575 0.21650574 0.60300004 4279243266
0.00057428575 0.21650574 0.60300004 4279571458
0.0017228572 0.21650574 0.60300004 4279897603
0.0028714288 0.21650574 0.60300004 4279438341
0.0040200003 0.21650574 0.60300004 4278979852
0.0051685721 0.21650574 0.60300004 4278979603
0.0063276193 0.21686476 0.60400003 4279045387
0.0074780956 0.21686476 0.60400003 4279307779
0.0086285714 0.21686476 0.60400003 4279569925
0.0097790482 0.21686476 0.60400003 4279308039
0.01094762 0.21722381 0.60500002 4279111687
0.0121 0.21722381 0.60500002 4279308550
0.013274285 0.21758287 0.60600001 4279505676
0.014428572 0.21758287 0.60600001 4279375122
0.015582857 0.21758287 0.60600001 4279243275
0.016737143 0.21758287 0.60600001 4279176964
0.017891428 0.21758287 0.60600001 4279111430
0.019077145 0.21794192 0.60700005 4279111688
0.020200001 0.21758287 0.60600001 4279111689
0.021389525 0.21794192 0.60700005 4279111947
0.022545716 0.21794192 0.60700005 4279177226
0.023701908 0.21794192 0.60700005 4279111690
0.024899049 0.21830097 0.60800004 4279111434
0.026057145 0.21830097 0.60800004 4279176971
0.027215241 0.21830097 0.60800004 4279307529
0.028373335 0.21830097 0.60800004 4279307272
0.029531429 0.21830097 0.60800004 4279308037
0.030689526 0.21830097 0.60800004 4279046657
0.031900004 0.21866001 0.60900003 4278850561
0.033059999 0.21866001 0.60900003 4279110913
0.034219999 0.21866001 0.60900003 4279372804
0.035380002 0.21866001 0.60900003 4279503879
0.036540002 0.21866001 0.60900003 4279700488
0.037823807 0.2193781 0.611 4279502856
0.038987618 0.2193781 0.611 4279308296
0.040151428 0.2193781 0.611 4279439368
0.041315239 0.2193781 0.611 4279571717
0.042548575 0.21973716 0.61200005 4279637250
0.043857146 0.22045524 0.61400002 4279702785
0.045026667 0.22045524 0.61400002 4279768577
0.046196189 0.22045524 0.61400002 4279899655
0.047365714 0.22045524 0.61400002 4280424205
0.048614286 0.22081429 0.61500001 4280946955
0.049866669 0.22117336 0.61600006 4280489226
0.051122863 0.22153239 0.61700004 4280030216
0.052298095 0.22153239 0.61700004 4280557831
0.053473335 0.22153239 0.61700004 4281146888
0.054737143 0.22189143 0.61800003 4280687370
0.055914287 0.22189143 0.61800003 4280293896
0.05709143 0.22189143 0.61800003 4280162567
0.05836286 0.22225048 0.61900002 4280031753
0.059541903 0.22225048 0.61900002 4280097547
0.060819048 0.22260952 0.62 4280163339
0.061999999 0.22260952 0.62 4279836171
0.063588567 0.22404571 0.62400001 4279508498
0.064777143 0.22404571 0.62400001 4279705113
0.065965712 0.22404571 0.62400001 4279965713
0.067261904 0.22440475 0.625 4279965448
0.068452381 0.22440475 0.625 4279965450
0.069642857 0.22440475 0.625 4280423691
0.070946671 0.22476383 0.62600005 4280948235
0.072254293 0.22512287 0.62700003 4280555531
0.073565714 0.22548191 0.62800002 4280161806
0.07488095 0.22584094 0.62900001 4280358162
0.076079048 0.22584094 0.62900001 4280620046
0.077522859 0.22655906 0.63100004 4280226825
0.078974292 0.22727714 0.63300002 4279899146
0.080306664 0.22763619 0.634 4279899404
0.081771433 0.22835431 0.63600004 4279899148
0.08324381 0.22907238 0.63800001 4279898637
0.084591433 0.22943144 0.63900006 4279899920
0.085808575 0.22943144 0.63900006 4280098323
0.087161906 0.22979049 0.64000005 4280359440
0.088519052 0.23014954 0.64100003 4280883470
0.089879997 0.23050858 0.64200002 4281407255
0.091386676 0.23122668 0.64400005 4280817185
0.092900954 0.23194477 0.64600003 4280227862
0.094277143 0.23230381 0.64700001 4279704332
0.095509529 0.23230381 0.64700001 4279179528
0.097190477 0.23338097 0.65000004 4279572485
0.098428577 0.23338097 0.65000004 4279964936
0.099820003 0.23374 0.65100002 4279965194
0.10137048 0.2344581 0.65300006 4279964936
0.10308572 0.23553525 0.65600002 4280291845
0.10513048 0.23733048 0.66100001 4280686088
0.10638952 0.23733048 0.66100001 4280488204
0.10781144 0.23768954 0.66200006 4280292639
0.10923715 0.23804858 0.66300005 4281211443
0.11083333 0.23876667 0.66500002 4282125594
0.11226857 0.23912571 0.66600001 4280221953
0.11370763 0.23948477 0.66700006 4278323467
0.11532286 0.24020287 0.66900003 4279767318
0.11677143 0.24056192 0.67000002 4281214746
0.11804762 0.24056192 0.67000002 4281482014
0.13133334 0.25133336 0.70000005 4282859817
0.13266666 0.25133336 0.70000005 4282596910
0.13553143 0.25420573 0.708 4282532660
0.13726667 0.25492382 0.71000004 4282465588
0.13861905 0.25492382 0.71000004 4282268725
0.13957714 0.25420573 0.708 4282137916
0.14132382 0.25492382 0.71000004 4282335044
0.1426762 0.25492382 0.71000004 4282597957
0.14362286 0.25420573 0.708 4282598727
0.14538096 0.25492382 0.71000004 4282661960
0.14673334 0.25492382 0.71000004 4282987848
0.14871144 0.25600097 0.71300006 4283322966
0.1494381 0.25492382 0.71000004 4283919461
0.15079048 0.25492382 0.71000004 4284507497
0.15214287 0.25492382 0.71000004 4284507757
0.38523048 0.45527238 1.268 4278453762
0.38764572 0.45527238 1.268 4278454018
0.38852286 0.45347714 1.263 4278453253
0.39092857 0.45347714 1.263 4278453256
0.39208859 0.45204097 1.2590001 4278453253
0.3944867 0.45204097 1.2590001 4278453506
0.39530861 0.45024574 1.2540001 4278453250
0.39769718 0.45024574 1.2540001 4278452994
0.39849052 0.44845048 1.2490001 4278518532
0.40086955 0.44845048 1.2490001 4278387462
0.40195712 0.44701427 1.245 4278256643
0.40432858 0.44701427 1.245 4278256897
0.40669999 0.44701427 1.245 4278322177
0.40742859 0.44521904 1.24 4278321921
0.4084686 0.44378287 1.2360001 4278387457
0.40949339 0.44234672 1.2320001 4278321921
0.40883145 0.43911526 1.223 4278321922
0.40981624 0.43767908 1.2190001 4278321923
0.4121381 0.43767908 1.2190001 4278387202
0.41276005 0.43588385 1.2140001 4278321665
0.41507241 0.43588385 1.2140001 4278321921
0.41600955 0.43444762 1.21 4278256385
0.41831428 0.43444762 1.21 4278256387
0.42061907 0.43444762 1.21 4278256645
0.42152572 0.43301147 1.2060001 4278256643
0.42382288 0.43301147 1.2060001 4278256897
0.42612001 0.43301147 1.2060001 4278322692
0.4269962 0.43157527 1.202 4278257671
0.42750001 0.42978001 1.197 4278257412
0.42978001 0.42978001 1.197 4278323458
0.43061623 0.42834383 1.1930001 4278388483
0.4328886 0.42834383 1.1930001 4278322437
0.4337019 0.4269076 1.189 4278321923
0.43596667 0.4269076 1.189 4278387201
0.43823144 0.4269076 1.189 4278452737
0.44049618 0.4269076 1.189 4278387201
0.44127145 0.42547145 1.1850001 4278387458
0.44352859 0.42547145 1.1850001 4278321923
0.44428101 0.42403525 1.1810001 4278256386
0.44653052 0.42403525 1.1810001 4278256385
0.44726002 0.42259905 1.177 4278256641
0.44950193 0.42259905 1.177 4278257153
0.45174384 0.42259905 1.177 4278322177
0.45398575 0.42259905 1.177 4278322434
0.45622763 0.42259905 1.177 4278322179
0.45846951 0.42259905 1.177 4278322181
0.46071142 0.42259905 1.177 4278387715
0.46295333 0.42259905 1.177 4278322178
0.46519524 0.42259905 1.177 4278321923
0.46743715 0.42259905 1.177 4278321924
0.46967906 0.42259905 1.177 4278387458
0.47192097 0.42259905 1.177 4278387201
0.47416288 0.42259905 1.177 4278452737
0.47640476 0.42259905 1.177 4278321921
0.47864667 0.42259905 1.177 4278256385
0.48088858 0.42259905 1.177 4278256386
0.48313048 0.42259905 1.177 4278321921
0.48537239 0.42259905 1.177 4278256385
0.48595718 0.4211629 1.1730001 4278256385
0.48819143 0.4211629 1.1730001 4278257665
0.49042574 0.4211629 1.1730001 4278257409
0.49266002 0.4211629 1.1730001 4278257409
0.49489433 0.4211629 1.1730001 4278322433
0.49712861 0.4211629 1.1730001 4278256641
0.49936292 0.4211629 1.1730001 4278256641
0.37569427 0.2969324 0.82700002 4278257666
0.37635717 0.29621431 0.82500005 4278323458
0.37701237 0.2954962 0.82300001 4278322945
0.37858 0.2954962 0.82300001 4278323206
0.37922382 0.29477811 0.82100004 4278323467
0.37986001 0.29406002 0.81900007 4278389510
0.38048857 0.2933419 0.81700003 4278455553
0.38204476 0.2933419 0.81700003 4278520833
0.38266191 0.29262385 0.81500006 4278455298
0.38421431 0.29262385 0.81500006 4278455297
0.38576669 0.29262385 0.81500006 4278455297
0.38731906 0.29262385 0.81500006 4278454787
0.38887146 0.29262385 0.81500006 4278454533
0.39042383 0.29262385 0.81500006 4278454531
0.39149523 0.29226476 0.81400001 4278388482
0.39304569 0.29226476 0.81400001 4278388993
0.39459622 0.29226476 0.81400001 4278389249
0.39614668 0.29226476 0.81400001 4278389251
0.39672002 0.29154667 0.81200004 4278388998
0.39924762 0.29226476 0.81400001 4278388740
0.39981335 0.29154667 0.81200004 4278454275
0.40234858 0.29226476 0.81400001 4278519555
0.40389904 0.29226476 0.81400001 4278454531
0.40445337 0.29154667 0.81200004 4278454786
0.40700001 0.29226476 0.81400001 4278454786
0.40754667 0.29154667 0.81200004 4278454785
0.40909332 0.29154667 0.81200004 4278389249
0.41064003 0.29154667 0.81200004 4278388993
0.41218668 0.29154667 0.81200004 4278389249
0.4127143 0.29082859 0.81000006 4278388740
0.41425717 0.29082859 0.81000006 4278388487
0.41580003 0.29082859 0.81000006 4278453764
0.41734287 0.29082859 0.81000006 4278519042
0.41888577 0.29082859 0.81000006 4278650113
0.4204286 0.29082859 0.81000006 4278519041
0.42197147 0.29082859 0.81000006 4278387969
0.42351431 0.29082859 0.81000006 4278519041
0.42610669 0.29154667 0.81200004 4278649861
0.42554668 0.29011047 0.80800003 4278518794
0.42814291 0.29082859 0.81000006 4278454277
0.42862478 0.29011047 0.80800003 4278323201
0.43016383 0.29011047 0.80800003 4278257409
0.43170288 0.29011047 0.80800003 4278257409
0.43324193 0.29011047 0.80800003 4278322177
0.43478096 0.29011047 0.80800003 4278321922
0.43632001 0.29011047 0.80800003 4278321665
-0.34386382 0.22126381 0.61300004 4281151029
-0.34269622 0.22126381 0.61300004 4280954417
-0.34152856 0.22126381 0.61300004 4280823605
-0.33980572 0.22090286 0.61200005 4281086522
-0.33587337 0.21909812 0.60700005 4281413946
-0.33692285 0.22054191 0.611 4281610555
-0.33465999 0.21982001 0.60900003 4281872955
-0.33514288 0.22090286 0.61200005 4281610812
-0.33397716 0.22090286 0.61200005 4281347895
-0.33118001 0.21982001 0.60900003 4280757042
-0.33002001 0.21982001 0.60900003 4280231730
-0.31454283 0.21873714 0.60600001 4281939527
-0.31338859 0.21873714 0.60600001 4282529098
-0.31223428 0.21873714 0.60600001 4283118912
-0.31159335 0.21909812 0.60700005 4281873206
-0.30992571 0.21873714 0.60600001 4280692020
-0.30877143 0.21873714 0.60600001 4280427827
-0.30812478 0.21909812 0.60700005 4280163894
-0.30798003 0.21982001 0.60900003 4280886586
-0.30883524 0.22126381 0.61300004 4281615707
-0.30766764 0.22126381 0.61300004 4283260028
-0.3075 0.22198571 0.61500001 4284975244
-0.30682668 0.22234668 0.61600006 4284448157
-0.30565336 0.22234668 0.61600006 4283986538
-0.30398571 0.22198571 0.61500001 4282664247
-0.3028143 0.22198571 0.61500001 4281347386
-0.30115241 0.22162476 0.61400002 4281741374
-0.29998288 0.22162476 0.61400002 4282069850
-0.29881331 0.22162476 0.61400002 4283450487
-0.29764381 0.22162476 0.61400002 4284771947
-0.29647428 0.22162476 0.61400002 4284304224
-0.29578573 0.22198571 0.61500001 4283916107
-0.29461429 0.22198571 0.61500001 4282459702
-0.29344285 0.22198571 0.61500001 4281016881
-0.29369715 0.22306858 0.61800003 4281215021
-0.29252002 0.22306858 0.61800003 4281413173
-0.29087144 0.22270763 0.61700004 4281870398
-0.28969622 0.22270763 0.61700004 4282329156
-0.28852096 0.22270763 0.61700004 4282794058
-0.28734574 0.22270763 0.61700004 4283259202
-0.2866343 0.22306858 0.61800003 4282337850
-0.28545716 0.22306858 0.61800003 4281482298
-0.2852 0.22379047 0.62 4281217083
-0.28401905 0.22379047 0.62 4280956471
-0.28283811 0.22379047 0.62 4281151284
-0.28256574 0.2245124 0.62200004 4281411901
-0.28138095 0.2245124 0.62200004 4282066247
-0.28019622 0.2245124 0.62200004 4282720840
-0.27990857 0.22523428 0.62400001 4281936458
-0.26921141 0.22523428 0.62400001 4283838785
-0.26759335 0.22487333 0.62300003 4282593603
-0.26640669 0.22487333 0.62300003 4281413950
-0.26522002 0.22487333 0.62300003 4281741370
-0.26403335 0.22487333 0.62300003 4282003496
-0.26284668 0.22487333 0.62300003 4282397719
-0.25975716 0.22631715 0.62700003 4282598487
-0.25815049 0.2259562 0.62600005 4281942091
-0.25695813 0.2259562 0.62600005 4282008383
-0.25576574 0.2259562 0.62600005 4282140476
-0.25579333 0.22703905 0.62900001 4282139449
-0.25540477 0.22776097 0.63100004 4282138681
-0.25420287 0.22776097 0.63100004 4282137146
-0.25300097 0.22776097 0.63100004 4282201409
-0.2521981 0.22812192 0.63200003 4282070344
-0.25139141 0.22848287 0.63300002 4282004808
-0.25018573 0.22848287 0.63300002 4282005320
-0.24937335 0.22884381 0.634 4282071629
-0.24855715 0.22920479 0.63500005 4281743186
-0.24773717 0.22956574 0.63600004 4281414993
-0.24730097 0.23028761 0.63800001 4281742928
-0.24685715 0.23100953 0.64000005 4282071121
-0.2456381 0.23100953 0.64000005 4282400082
-0.24403715 0.23064858 0.63900006 4282729032
-0.24282002 0.23064858 0.63900006 4282534975
-0.24160288 0.23064858 0.63900006 4282409021
-0.24076192 0.23100953 0.64000005 4281742395
-0.23954287 0.23100953 0.64000005 4281148729
-0.23832382 0.23100953 0.64000005 4281476664
-0.23673432 0.23064858 0.63900006 4281808693
-0.23588574 0.23100953 0.64000005 4282270003
-0.23466669 0.23100953 0.64000005 4282794556
-0.23308288 0.23064858 0.63900006 4282860614
-0.23186572 0.23064858 0.63900006 4282991693
-0.23028761 0.23028761 0.63800001 4282992469
-0.22907238 0.23028761 0.63800001 4282992966
-0.2296543 0.24797429 0.68700004 4279832850
-0.22801335 0.24761336 0.68600005 4279766290
-0.22670668 0.24761336 0.68600005 4279636243
-0.22540002 0.24761336 0.68600005 4279506192
-0.22409335 0.24761336 0.68600005 4279243789
