# .PCD v0.7 - Point Cloud Data file format
VERSION 0.7
FIELDS x y z rgba
SIZE 4 4 4 4
TYPE F F F U
COUNT 1 1 1 1
WIDTH 1113
HEIGHT 1
VIEWPOINT 0 0 0 1 0 0 0
POINTS 1113
DATA ascii
-0.0087400004 0.48319718 1.3110001 4284176416
-0.0062428573 0.48319718 1.3110001 4283387439
-0.0037314286 0.48135433 1.3060001 4282859327
-0.0012438096 0.48135433 1.3060001 4282331456
0.0012390477 0.47951147 1.3010001 4281215041
0.0037171431 0.47951147 1.3010001 4280033057
0.0061952388 0.47951147 1.3010001 4280029185
0.0086733336 0.47951147 1.3010001 4280025605
0.01115143 0.47951147 1.3010001 4279894537
0.013577144 0.47766855 1.296 4279763471
0.016045714 0.47766855 1.296 4281205013
0.018514287 0.47766855 1.296 4282712387
0.020901905 0.47582573 1.291 4283762289
0.023360951 0.47582573 1.291 4284746659
0.02582 0.47582573 1.291 4285615830
0.028279047 0.47582573 1.291 4286550729
0.03064286 0.47435147 1.2870001 4286559676
0.033094287 0.47435147 1.2870001 4286568895
0.035545714 0.47435147 1.2870001 4288801730
0.037997145 0.47435147 1.2870001 4291034845
0.040448572 0.47435147 1.2870001 4291886840
0.0429 0.47435147 1.2870001 4292738807
0.045351431 0.47435147 1.2870001 4293132023
0.047617145 0.47250861 1.2820001 4293525239
0.05005905 0.47250861 1.2820001 4294180600
0.052500956 0.47250861 1.2820001 4294835961
0.054942857 0.47250861 1.2820001 4294835963
0.057384763 0.47250861 1.2820001 4294901499
0.059593335 0.47066575 1.2770001 4294901500
0.062268574 0.47250861 1.2820001 4294901501
0.064710483 0.47250861 1.2820001 4294901502
0.067152381 0.47250861 1.2820001 4294901502
0.069594286 0.47250861 1.2820001 4294901502
0.072036192 0.47250861 1.2820001 4294901502
0.074478097 0.47250861 1.2820001 4294901502
0.076920003 0.47250861 1.2820001 4294901502
0.079361908 0.47250861 1.2820001 4294901502
0.081803814 0.47250861 1.2820001 4294901502
0.084245719 0.47250861 1.2820001 4294901502
0.086687624 0.47250861 1.2820001 4294901502
0.08912953 0.47250861 1.2820001 4294901502
0.091571428 0.47250861 1.2820001 4294901502
0.094013333 0.47250861 1.2820001 4294901502
0.096455246 0.47250861 1.2820001 4294901502
0.098897144 0.47250861 1.2820001 4294901502
0.10173429 0.47435147 1.2870001 4294901502
0.10378096 0.47250861 1.2820001 4294901502
0.10622286 0.47250861 1.2820001 4294901502
0.10908858 0.47435147 1.2870001 4294901502
0.11154 0.47435147 1.2870001 4294901502
0.11354858 0.47250861 1.2820001 4294901502
0.11599048 0.47250861 1.2820001 4294901502
0.11843238 0.47250861 1.2820001 4294901502
0.12087429 0.47250861 1.2820001 4294901502
0.1233162 0.47250861 1.2820001 4294901502
0.1257581 0.47250861 1.2820001 4294901502
0.12819999 0.47250861 1.2820001 4294246142
0.13064191 0.47250861 1.2820001 4293656318
0.13360286 0.47435147 1.2870001 4292673278
0.13605429 0.47435147 1.2870001 4291690206
0.13850571 0.47435147 1.2870001 4289658559
0.14095715 0.47435147 1.2870001 4287692442
0.14340858 0.47435147 1.2870001 4287352438
0.14586 0.47435147 1.2870001 4287012754
0.14831144 0.47435147 1.2870001 4286206126
0.15123142 0.47582573 1.291 4285464936
0.15369047 0.47582573 1.291 4284678434
0.15614952 0.47582573 1.291 4283826474
0.15860857 0.47582573 1.291 4282515762
0.16106762 0.47582573 1.291 4281205017
0.16416 0.47766855 1.296 4281669377
0.16727144 0.47951147 1.3010001 4282199603
0.16974954 0.47951147 1.3010001 4282997094
0.17288953 0.48135433 1.3060001 4283794768
0.17537715 0.48135433 1.3060001 4286089018
0.17786478 0.48135433 1.3060001 4288383577
0.18104286 0.48319718 1.3110001 4289570169
0.18354 0.48319718 1.3110001 4290822557
0.18603715 0.48319718 1.3110001 4290565570
0.18853429 0.48319718 1.3110001 4290308748
0.1924886 0.4868829 1.3210001 4288184151
0.19500478 0.4868829 1.3210001 4286059820
0.19976382 0.49241146 1.3360001 4284562945
0.20321715 0.49462286 1.342 4283105572
0.20654002 0.49646577 1.3470001 4284025927
0.20988192 0.49830863 1.3520001 4284893757
0.21245715 0.49830863 1.3520001 4286474804
0.2356343 0.49830863 1.3520001 4291730813
0.24593526 0.49830863 1.3520001 4291534202
0.26138669 0.49830863 1.3520001 4293197534
0.29453334 0.48504004 1.3160001 4282678373
0.29591146 0.48319718 1.3110001 4288010696
-0.37758002 0.24118002 0.65100002 4287661201
-0.37634 0.24118002 0.65100002 4287399306
-0.37510002 0.24118002 0.65100002 4287202956
-0.38247427 0.24673715 0.66600001 4287137678
-0.38120571 0.24673715 0.66600001 4287137169
-0.38050765 0.24710763 0.66700006 4287267733
-0.37923717 0.24710763 0.66700006 4287398804
-0.37796667 0.24710763 0.66700006 4287267988
-0.37782571 0.24784857 0.66900003 4287136661
-0.3771143 0.24821904 0.67000002 4287005590
-0.37639904 0.24858953 0.671 4286940049
-0.37568003 0.24896002 0.67200005 4286677901
-0.37607142 0.25007144 0.67500001 4286481544
-0.37645143 0.25118285 0.67800003 4286613635
-0.37516004 0.25118285 0.67800003 4286744449
-0.37442002 0.25155336 0.67900002 4286415999
-0.37312669 0.25155336 0.67900002 4286153083
-0.37347621 0.25266477 0.68200004 4285689976
-0.37436002 0.25414667 0.68600005 4285295474
-0.37740383 0.25711048 0.69400001 4285229164
-0.37662381 0.25748095 0.69500005 4285162861
-0.37638 0.25822189 0.69700003 4285097070
-0.37559047 0.25859237 0.69800001 4285031018
-0.37426096 0.25859237 0.69800001 4284965734
-0.37774 0.26192668 0.70700002 4284965992
-0.37692571 0.26229712 0.708 4284047209
-0.37663811 0.2630381 0.71000004 4283194445
-0.37687144 0.26414955 0.71300006 4281015088
-0.37604001 0.26452002 0.71400005 4278850089
-0.37625429 0.26563141 0.71700001 4279306530
-0.37436572 0.26526096 0.71600002 4279831343
-0.3730019 0.26526096 0.71600002 4279963197
-0.37163809 0.26526096 0.71600002 4280160564
-0.46227717 0.43753242 1.1810001 4279440680
-0.45846951 0.4360505 1.177 4279637552
-0.45622763 0.4360505 1.177 4279441975
-0.45398575 0.4360505 1.177 4279244337
-0.45174384 0.4360505 1.177 4278982443
-0.44950193 0.4360505 1.177 4278719525
-0.44574004 0.43456858 1.1730001 4279112735
-0.44501811 0.4360505 1.177 4279572259
-0.4427762 0.4360505 1.177 4279640103
-0.44053429 0.4360505 1.177 4279772456
-0.43829241 0.4360505 1.177 4280232745
-0.4360505 0.4360505 1.177 4280691247
-0.43303338 0.43753242 1.1810001 4279772970
-0.43078384 0.43753242 1.1810001 4279640094
-0.4285343 0.43753242 1.1810001 4279573797
-0.42628479 0.43753242 1.1810001 4279440684
-0.42403525 0.43753242 1.1810001 4279376428
-0.40878952 0.44049618 1.189 4279570978
-0.40652478 0.44049618 1.189 4279307798
-0.40425998 0.44049618 1.189 4279110944
-0.40199524 0.44049618 1.189 4279307307
-0.39838573 0.43901432 1.1850001 4279506984
-0.39746571 0.44049618 1.189 4279442469
-0.39520094 0.44049618 1.189 4279444520
-0.4001067 0.45642671 1.2320001 4280166710
-0.39776003 0.45642671 1.2320001 4280429881
-0.39380863 0.45457432 1.2270001 4280691515
-0.3930667 0.45642671 1.2320001 4281411900
-0.39072004 0.45642671 1.2320001 4282136393
-0.38837335 0.45642671 1.2320001 4282800214
-0.38602668 0.45642671 1.2320001 4283457625
-0.38212287 0.45457432 1.2270001 4283787612
-0.37978575 0.45457432 1.2270001 4284181083
-0.37744862 0.45457432 1.2270001 4285688666
-0.37113717 0.44975811 1.2140001 4287265655
-0.36517906 0.44531238 1.202 4287272852
-0.36138001 0.44345999 1.197 4287273359
-0.35790002 0.44197813 1.1930001 4287141514
-0.35562763 0.44197813 1.1930001 4287008902
-0.35335526 0.44197813 1.1930001 4286610563
-0.35108286 0.44197813 1.1930001 4286219915
-0.34881049 0.44197813 1.1930001 4288128660
-0.3465381 0.44197813 1.1930001 4290033064
-0.34542 0.44345999 1.197 4289704891
-0.34571999 0.4467943 1.2060001 4289376952
-0.34342289 0.4467943 1.2060001 4289442228
-0.34112576 0.4467943 1.2060001 4289575097
-0.33882859 0.4467943 1.2060001 4289839294
-0.33764762 0.44827619 1.21 4290096556
-0.33534285 0.44827619 1.21 4287725466
-0.33303809 0.44827619 1.21 4285431177
-0.33073336 0.44827619 1.21 4285889656
-0.32842857 0.44827619 1.21 4286413437
-0.32962763 0.4530924 1.223 4287664001
-0.32970667 0.45642671 1.2320001 4288914074
-0.32842287 0.45790857 1.2360001 4288329395
-0.32712382 0.45939049 1.24 4287732125
-0.3247619 0.45939049 1.24 4287331464
-0.17508286 0.29230574 0.78900003 4281676851
-0.17358001 0.29230574 0.78900003 4281808182
-0.17207715 0.29230574 0.78900003 4282004792
-0.17100666 0.29304668 0.79100001 4282004793
-0.16950001 0.29304668 0.79100001 4282005565
-0.16799334 0.29304668 0.79100001 4282071618
-0.16648667 0.29304668 0.79100001 4282202439
-0.16539715 0.29378763 0.79300004 4282202445
-0.16388667 0.29378763 0.79300004 4282268754
-0.1623762 0.29378763 0.79300004 4282335062
-0.16086572 0.29378763 0.79300004 4282400596
-0.15975715 0.29452857 0.79500002 4282269777
-0.062626667 0.49717906 1.342 4284698680
-0.059801906 0.49495623 1.3360001 4283716150
-0.057042859 0.49310383 1.3310001 4282800191
-0.05430286 0.49125144 1.3260001 4284767816
-0.051777147 0.49125144 1.3260001 4286744180
-0.049065717 0.48939905 1.3210001 4289507233
-0.046549525 0.48939905 1.3210001 4292265125
-0.044033337 0.48939905 1.3210001 4292070057
-0.041360006 0.48754671 1.3160001 4291873442
-0.038853336 0.48754671 1.3160001 4291345052
-0.036346667 0.48754671 1.3160001 4290883725
-0.033840001 0.48754671 1.3160001 4290422399
-0.031333335 0.48754671 1.3160001 4289958747
-0.028717143 0.48569432 1.3110001 4287922486
-0.026220001 0.48569432 1.3110001 4285878068
-0.023722859 0.48569432 1.3110001 4282064433
-0.021225717 0.48569432 1.3110001 4278274859
-0.018728573 0.48569432 1.3110001 4280549668
-0.016169524 0.48384196 1.3060001 4282861863
-0.013734287 0.48569432 1.3110001 4284572202
-0.011237144 0.48569432 1.3110001 4286342188
-0.0087400004 0.48569432 1.3110001 4285621806
-0.0062428573 0.48569432 1.3110001 4284899136
-0.0037457147 0.48569432 1.3110001 4284045650
-0.0012438096 0.48384196 1.3060001 4283191108
0.0012438096 0.48384196 1.3060001 4282533431
0.0037314286 0.48384196 1.3060001 4281875240
0.0061952388 0.48198956 1.3010001 4281872409
0.0086733336 0.48198956 1.3010001 4281870366
0.01115143 0.48198956 1.3010001 4281540899
0.013629524 0.48198956 1.3010001 4281209894
0.016045714 0.48013714 1.296 4279699241
0.018514287 0.48013714 1.296 4278256694
0.020982856 0.48013714 1.296 4278255939
0.023360951 0.47828478 1.291 4278255959
0.02582 0.47828478 1.291 4278255979
0.028279047 0.47828478 1.291 4278255976
0.03064286 0.47680289 1.2870001 4278256229
0.033094287 0.47680289 1.2870001 4278265973
0.035545714 0.47680289 1.2870001 4282732421
0.037997145 0.47680289 1.2870001 4287201435
0.040448572 0.47680289 1.2870001 4288852658
0.0429 0.47680289 1.2870001 4290560186
0.045351431 0.47680289 1.2870001 4291350210
0.047617145 0.47495049 1.2820001 4292138190
0.05005905 0.47495049 1.2820001 4293450459
0.052500956 0.47495049 1.2820001 4294765784
0.054942857 0.47495049 1.2820001 4294835925
0.057160955 0.4730981 1.2770001 4294901472
0.059593335 0.4730981 1.2770001 4294901483
0.062025718 0.4730981 1.2770001 4294901473
0.064710483 0.47495049 1.2820001 4294901464
0.067152381 0.47495049 1.2820001 4294901476
0.069594286 0.47495049 1.2820001 4294901488
0.071755238 0.4730981 1.2770001 4294901488
0.074187621 0.4730981 1.2770001 4294901488
0.076620005 0.4730981 1.2770001 4294901491
0.079052381 0.4730981 1.2770001 4294901494
0.081484765 0.4730981 1.2770001 4294901495
0.083917148 0.4730981 1.2770001 4294901496
0.086349532 0.4730981 1.2770001 4294901497
0.088781908 0.4730981 1.2770001 4294901498
0.091214284 0.4730981 1.2770001 4294901496
0.093646668 0.4730981 1.2770001 4294901494
0.096455246 0.47495049 1.2820001 4294901494
0.098897144 0.47495049 1.2820001 4294901494
0.10133905 0.47495049 1.2820001 4294901493
0.10378096 0.47495049 1.2820001 4294901493
0.10622286 0.47495049 1.2820001 4294901485
0.10866477 0.47495049 1.2820001 4294901478
0.11110667 0.47495049 1.2820001 4294901470
0.11354858 0.47495049 1.2820001 4294901462
0.11553811 0.4730981 1.2770001 4294901468
0.11797048 0.4730981 1.2770001 4294901473
0.12087429 0.47495049 1.2820001 4294901216
0.1233162 0.47495049 1.2820001 4294901214
0.12477715 0.47124574 1.2720001 4294897628
0.12819999 0.47495049 1.2820001 4293648857
0.13064191 0.47495049 1.2820001 4292398530
0.13360286 0.47680289 1.2870001 4290427563
0.13605429 0.47680289 1.2870001 4288437642
0.13850571 0.47680289 1.2870001 4284416362
0.14095715 0.47680289 1.2870001 4280418642
0.14340858 0.47680289 1.2870001 4279763259
0.14586 0.47680289 1.2870001 4279107913
0.14831144 0.47680289 1.2870001 4278649175
0.15076287 0.47680289 1.2870001 4278255939
0.15369047 0.47828478 1.291 4278649135
0.15614952 0.47828478 1.291 4279114045
0.15860857 0.47828478 1.291 4281348684
0.16231525 0.48198956 1.3010001 4283584063
0.16542667 0.48384196 1.3060001 4284836658
0.1679143 0.48384196 1.3060001 4286081102
0.17105429 0.48569432 1.3110001 4286211434
0.17355144 0.48569432 1.3110001 4286355319
0.17604858 0.48569432 1.3110001 4288652419
0.17854573 0.48569432 1.3110001 4290953848
0.18173335 0.48754671 1.3160001 4292206701
0.18424001 0.48754671 1.3160001 4293436280
0.18674667 0.48754671 1.3160001 4290419587
0.18853429 0.48569432 1.3110001 4287450722
0.1924886 0.48939905 1.3210001 4283564353
0.19810475 0.49717906 1.342 4279775788
0.20066094 0.49717906 1.342 4282269975
0.20321715 0.49717906 1.342 4284820522
0.20654002 0.49903145 1.3470001 4285142846
0.28701335 0.48754671 1.3160001 4278255968
0.28952003 0.48754671 1.3160001 4278255965
0.2920267 0.48754671 1.3160001 4282646875
0.29453334 0.48754671 1.3160001 4287080351
0.29591146 0.48569432 1.3110001 4290969315
0.2984086 0.48569432 1.3110001 4294901475
0.30090573 0.48569432 1.3110001 4294901476
0.30340287 0.48569432 1.3110001 4294897842
-0.37758002 0.24242002 0.65100002 4287464842
-0.37634 0.24242002 0.65100002 4287333765
-0.37510002 0.24242002 0.65100002 4287202953
-0.37386 0.24242002 0.65100002 4287137165
-0.38063332 0.24763334 0.66500002 4287137166
-0.37993714 0.24800572 0.66600001 4287136656
-0.37923717 0.24837811 0.66700006 4287202194
-0.37796667 0.24837811 0.66700006 4287136660
-0.37782571 0.24912286 0.66900003 4287071634
-0.3771143 0.24949524 0.67000002 4287005584
-0.37639904 0.2498676 0.671 4287005581
-0.37568003 0.25024 0.67200005 4286940043
-0.37440002 0.25024 0.67200005 4286940551
-0.37645143 0.25247431 0.67800003 4286875012
-0.37571335 0.25284669 0.67900002 4286809727
-0.37442002 0.25284669 0.67900002 4286546811
-0.37367621 0.25321904 0.68000001 4286284409
-0.37347621 0.25396383 0.68200004 4285822328
-0.37927145 0.2588048 0.69500005 4285427313
-0.37794766 0.2588048 0.69500005 4285294955
-0.37662381 0.2588048 0.69500005 4285162604
-0.37692001 0.25992191 0.69800001 4285031277
-0.37559047 0.25992191 0.69800001 4284965225
-0.37801433 0.2625286 0.70500004 4284899686
-0.37827426 0.26364571 0.708 4284900713
-0.37799048 0.2643905 0.71000004 4284375916
-0.37663811 0.2643905 0.71000004 4283916877
-0.37581429 0.26476285 0.71100003 4281346095
-0.37604001 0.26588002 0.71400005 4278846242
-0.37625429 0.26699716 0.71700001 4279110165
-0.37436572 0.26662475 0.71600002 4279372581
-0.37196001 0.26588002 0.71400005 4279569461
-0.37060001 0.26588002 0.71400005 4279765810
-0.46227717 0.43978196 1.1810001 4279769130
-0.45846951 0.43829241 1.177 4279834422
-0.45622763 0.43829241 1.177 4279572290
-0.45398575 0.43829241 1.177 4279375672
-0.45174384 0.43829241 1.177 4279244590
-0.44950193 0.43829241 1.177 4279178028
-0.44726002 0.43829241 1.177 4279572266
-0.44501811 0.43829241 1.177 4279900715
-0.4427762 0.43829241 1.177 4279967788
-0.44053429 0.43829241 1.177 4280035626
-0.43829241 0.43829241 1.177 4280298024
-0.43753242 0.43978196 1.1810001 4280558635
-0.43528292 0.43978196 1.1810001 4280231214
-0.43303338 0.43978196 1.1810001 4279903775
-0.43224287 0.44127145 1.1850001 4279770641
-0.42708287 0.43829241 1.177 4279704864
-0.42484096 0.43829241 1.177 4279770159
-0.4101648 0.44425052 1.1930001 4279373092
-0.40789241 0.44425052 1.1930001 4279308061
-0.40562004 0.44425052 1.1930001 4279308323
-0.40199524 0.44276097 1.189 4279440425
-0.39973047 0.44276097 1.189 4279639082
-0.39746571 0.44276097 1.189 4279639596
-0.39520094 0.44276097 1.189 4279706666
-0.4001067 0.45877337 1.2320001 4280363320
-0.39614573 0.45691147 1.2270001 4280558907
-0.39380863 0.45691147 1.2270001 4280820281
-0.3930667 0.45877337 1.2320001 4281937976
-0.38913432 0.45691147 1.2270001 4283055690
-0.38837335 0.45877337 1.2320001 4283522652
-0.38446003 0.45691147 1.2270001 4283983968
-0.38087717 0.45542192 1.223 4284246629
-0.37730953 0.4539324 1.2190001 4284575070
-0.37098858 0.44909143 1.2060001 4285954136
-0.36746857 0.44760188 1.202 4287399039
-0.36366001 0.44574001 1.197 4287338662
-0.36017242 0.44425052 1.1930001 4287273369
-0.35790002 0.44425052 1.1930001 4286812556
-0.35562763 0.44425052 1.1930001 4286351230
-0.35335526 0.44425052 1.1930001 4287069553
-0.35108286 0.44425052 1.1930001 4287859864
-0.34881049 0.44425052 1.1930001 4288785088
-0.3465381 0.44425052 1.1930001 4289771450
-0.34426573 0.44425052 1.1930001 4289638837
-0.34457332 0.44760188 1.202 4289506996
-0.34086001 0.44574001 1.197 4289705140
-0.34112576 0.44909143 1.2060001 4289905852
-0.33882859 0.44909143 1.2060001 4288918213
-0.33653146 0.44909143 1.2060001 4287994273
-0.33534285 0.45058095 1.21 4286808189
-0.33303809 0.45058095 1.21 4285693305
-0.33073336 0.45058095 1.21 4286086005
-0.32842857 0.45058095 1.21 4286478975
-0.32720193 0.4520705 1.2140001 4287932553
-0.3272981 0.45542192 1.223 4289443990
-0.32496858 0.45542192 1.223 4288257700
-0.32712382 0.46175238 1.24 4287067029
-0.3247619 0.46175238 1.24 4287004550
-0.17486095 0.29343623 0.78800005 4281547313
-0.17336002 0.29343623 0.78800005 4281742389
-0.17207715 0.29380858 0.78900003 4281939000
-0.17100666 0.29455334 0.79100001 4281873980
-0.16907144 0.29380858 0.78900003 4281874495
-0.16756858 0.29380858 0.78900003 4281939779
-0.16648667 0.29455334 0.79100001 4282070857
-0.16498001 0.29455334 0.79100001 4282137167
-0.16347334 0.29455334 0.79100001 4282202965
-0.16196667 0.29455334 0.79100001 4282269532
-0.16086572 0.2952981 0.79300004 4282335318
-0.057257146 0.49750099 1.3360001 4283715629
-0.05430286 0.49377719 1.3260001 4284240145
-0.051777147 0.49377719 1.3260001 4284830548
-0.049065717 0.49191529 1.3210001 4287006104
-0.046549525 0.49191529 1.3210001 4289184674
-0.043866672 0.49005336 1.3160001 4290561964
-0.041360006 0.49005336 1.3160001 4291939236
-0.038853336 0.49005336 1.3160001 4291873180
-0.036346667 0.49005336 1.3160001 4291807132
-0.03371143 0.48819143 1.3110001 4291478685
-0.031214288 0.48819143 1.3110001 4291150212
-0.028717143 0.48819143 1.3110001 4289703532
-0.026220001 0.48819143 1.3110001 4288257108
-0.023722859 0.48819143 1.3110001 4286018364
-0.021225717 0.48819143 1.3110001 4283779870
-0.018728573 0.48819143 1.3110001 4283643393
-0.016169524 0.48632959 1.3060001 4283507218
-0.013734287 0.48819143 1.3110001 4282990116
-0.011237144 0.48819143 1.3110001 4282473264
-0.0087400004 0.48819143 1.3110001 4283262268
-0.0062428573 0.48819143 1.3110001 4284116816
-0.0037457147 0.48819143 1.3110001 4284372581
-0.0012438096 0.48632959 1.3060001 4284636489
0.0012438096 0.48632959 1.3060001 4284176942
0.0037314286 0.48632959 1.3060001 4283717679
0.0061952388 0.48446766 1.3010001 4283256113
0.0086733336 0.48446766 1.3010001 4282860343
0.01115143 0.48446766 1.3010001 4282333501
0.013577144 0.4826057 1.296 4281872189
0.016107621 0.48446766 1.3010001 4280886334
0.018514287 0.4826057 1.296 4279965993
0.020982856 0.4826057 1.296 4279899669
0.023451429 0.4826057 1.296 4279898891
0.02582 0.4807438 1.291 4279503361
0.028279047 0.4807438 1.291 4279108103
0.030738097 0.4807438 1.291 4279173390
0.033094287 0.47925431 1.2870001 4279238955
0.035545714 0.47925431 1.2870001 4280942920
0.037997145 0.47925431 1.2870001 4282712410
0.040448572 0.47925431 1.2870001 4283564397
0.0429 0.47925431 1.2870001 4284416381
0.045175239 0.47739241 1.2820001 4284752014
0.047617145 0.47739241 1.2820001 4285153190
0.05005905 0.47739241 1.2820001 4285819326
0.052500956 0.47739241 1.2820001 4286485430
0.054728575 0.47553051 1.2770001 4286550191
0.057160955 0.47553051 1.2770001 4286549700
0.059593335 0.47553051 1.2770001 4286557658
0.062025718 0.47553051 1.2770001 4286565574
0.064710483 0.47739241 1.2820001 4287751602
0.067152381 0.47739241 1.2820001 4288937674
0.069594286 0.47739241 1.2820001 4289658595
0.072036192 0.47739241 1.2820001 4290313954
0.074478097 0.47739241 1.2820001 4290969314
0.076620005 0.47553051 1.2770001 4291690216
0.079052381 0.47553051 1.2770001 4291755758
0.081484765 0.47553051 1.2770001 4291886832
0.083917148 0.47553051 1.2770001 4291952371
0.086349532 0.47553051 1.2770001 4292083444
0.088781908 0.47553051 1.2770001 4292017910
0.091214284 0.47553051 1.2770001 4291952370
0.093646668 0.47553051 1.2770001 4291821294
0.096079051 0.47553051 1.2770001 4291755758
0.098511435 0.47553051 1.2770001 4291559150
0.10133905 0.47739241 1.2820001 4291428077
0.10337619 0.47553051 1.2770001 4290772716
0.10622286 0.47739241 1.2820001 4290182877
0.10866477 0.47739241 1.2820001 4289002190
0.11110667 0.47739241 1.2820001 4287887294
0.11354858 0.47739241 1.2820001 4287422383
0.11553811 0.47553051 1.2770001 4287023290
0.11750858 0.47366858 1.2720001 4286754757
0.11993144 0.47366858 1.2720001 4286551746
0.12283524 0.47553051 1.2770001 4286549439
0.12477715 0.47366858 1.2720001 4286547130
0.12819999 0.47739241 1.2820001 4285940405
0.13115142 0.47925431 1.2870001 4285268358
0.13360286 0.47925431 1.2870001 4284416344
0.13605429 0.47925431 1.2870001 4283629878
0.13850571 0.47925431 1.2870001 4281860373
0.14095715 0.47925431 1.2870001 4280090891
0.14385428 0.4807438 1.291 4280353025
0.14586 0.47925431 1.2870001 4280615169
0.14831144 0.47925431 1.2870001 4281207297
0.15123142 0.4807438 1.291 4281734175
0.15369047 0.4807438 1.291 4282138685
0.15675429 0.4826057 1.296 4282477649
0.15811715 0.47925431 1.2870001 4283790950
0.16293906 0.48632959 1.3060001 4285104484
0.16542667 0.48632959 1.3060001 4286745699
0.16855715 0.48819143 1.3110001 4288386921
0.17170668 0.49005336 1.3160001 4288585839
0.17421333 0.49005336 1.3160001 4288850334
0.17672001 0.49005336 1.3160001 4289309901
0.17922668 0.49005336 1.3160001 4289782423
0.18173335 0.49005336 1.3160001 4288132194
0.18424001 0.49005336 1.3160001 4286416467
0.18674667 0.49005336 1.3160001 4286006085
0.18925335 0.49005336 1.3160001 4285595960
0.1924886 0.49191529 1.3210001 4284491564
0.26712191 0.49973521 1.342 4294639358
0.27865145 0.49750099 1.3360001 4286257726
0.28119621 0.49750099 1.3360001 4285207822
0.28161716 0.49377719 1.3260001 4284223499
0.28414285 0.49377719 1.3260001 4282910985
0.28558764 0.49191529 1.3210001 4281664261
0.28810385 0.49191529 1.3210001 4280353025
0.29062003 0.49191529 1.3210001 4279042394
0.2920267 0.49005336 1.3160001 4284097972
0.29453334 0.49005336 1.3160001 4289254361
0.29591146 0.48819143 1.3110001 4292083454
0.2984086 0.48819143 1.3110001 4294901502
0.30090573 0.48819143 1.3110001 4294901502
0.30340287 0.48819143 1.3110001 4294901502
0.30356669 0.48446766 1.3010001 4293325822
0.30486858 0.4826057 1.296 4291750050
-0.37758002 0.24366 0.65100002 4287268494
-0.37634 0.24366 0.65100002 4287203212
-0.37510002 0.24366 0.65100002 4287202700
-0.37902859 0.24702857 0.66000003 4287202700
-0.3789162 0.24777715 0.66200006 4287202187
-0.37765527 0.24777715 0.66200006 4287070602
-0.37923717 0.24964859 0.66700006 4287005584
-0.37910002 0.25039718 0.66900003 4287005591
-0.37782571 0.25039718 0.66900003 4287071122
-0.3771143 0.25077143 0.67000002 4287071117
-0.37639904 0.25114572 0.671 4287071116
-0.37568003 0.25152001 0.67200005 4287202187
-0.3755143 0.25226858 0.67400002 4287398796
-0.37534097 0.25301716 0.67600006 4287136909
-0.37571335 0.25414002 0.67900002 4286874502
-0.37497142 0.25451428 0.68000001 4286612351
-0.37367621 0.25451428 0.68000001 4286415226
-0.37347621 0.25526285 0.68200004 4286020468
-0.37818003 0.25937998 0.69300002 4285624434
-0.37685999 0.25937998 0.69300002 4285361007
-0.37770763 0.26087716 0.69700003 4285162093
-0.37962002 0.26312286 0.70300001 4285031018
-0.37666669 0.26199999 0.70000005 4284899688
-0.37908667 0.26462001 0.70700002 4284899431
-0.37827426 0.26499426 0.708 4284899946
-0.37692571 0.26499426 0.708 4284769645
-0.37663811 0.26574287 0.71000004 4284638286
-0.37687144 0.26686573 0.71300006 4281742640
-0.37762001 0.26836285 0.71700001 4278846762
-0.37572953 0.26798856 0.71600002 4278914084
-0.37436572 0.26798856 0.71600002 4278979882
-0.3730019 0.26798856 0.71600002 4279176753
-0.37163809 0.26798856 0.71600002 4279372590
-0.46227717 0.44203147 1.1810001 4280097322
-0.45846951 0.44053429 1.177 4280031536
-0.45622763 0.44053429 1.177 4279769399
-0.45552862 0.44203147 1.1810001 4279506992
-0.45174384 0.44053429 1.177 4279572266
-0.44950193 0.44053429 1.177 4279703595
-0.44726002 0.44053429 1.177 4279966252
-0.44653052 0.44203147 1.1810001 4280294700
-0.44428101 0.44203147 1.1810001 4280295724
-0.44203147 0.44203147 1.1810001 4280297769
-0.43829241 0.44053429 1.177 4280363303
-0.4360505 0.44053429 1.177 4280493355
-0.43528292 0.44203147 1.1810001 4280296238
-0.43303338 0.44203147 1.1810001 4280098598
-0.43078384 0.44203147 1.1810001 4279966750
-0.42708287 0.44053429 1.177 4279835946
-0.42484096 0.44053429 1.177 4280098615
-0.4101648 0.44652289 1.1930001 4279176997
-0.40789241 0.44652289 1.1930001 4279308576
-0.40562004 0.44652289 1.1930001 4279505957
-0.40334764 0.44652289 1.1930001 4279638058
-0.40107527 0.44652289 1.1930001 4279769898
-0.39880291 0.44652289 1.1930001 4279836715
-0.39653051 0.44652289 1.1930001 4279968041
-0.39485431 0.45775142 1.223 4280754758
-0.39252478 0.45775142 1.223 4281017925
-0.39147148 0.45924863 1.2270001 4282534980
-0.38913432 0.45924863 1.2270001 4284045392
-0.38679716 0.45924863 1.2270001 4284245085
-0.38446003 0.45924863 1.2270001 4284508511
-0.37963146 0.45625433 1.2190001 4284707426
-0.3720476 0.44989145 1.202 4284969069
-0.36822 0.44802001 1.197 4286219129
-0.36594 0.44802001 1.197 4287532682
-0.36244479 0.44652289 1.1930001 4287404443
-0.36017242 0.44652289 1.1930001 4287272083
-0.35790002 0.44652289 1.1930001 4286483596
-0.35443524 0.44502571 1.189 4285760901
-0.35217047 0.44502571 1.189 4287594111
-0.3499057 0.44502571 1.189 4289500830
-0.34764096 0.44502571 1.189 4289507261
-0.34537616 0.44502571 1.189 4289507258
-0.34426573 0.44652289 1.1930001 4289573047
-0.34199333 0.44652289 1.1930001 4289703867
-0.33972096 0.44652289 1.1930001 4289968063
-0.33999431 0.44989145 1.202 4290298043
-0.33882859 0.4513886 1.2060001 4288062904
-0.33653146 0.4513886 1.2060001 4285895580
-0.33534285 0.45288575 1.21 4285956480
-0.33303809 0.45288575 1.21 4286021500
-0.33073336 0.45288575 1.21 4286281592
-0.32842857 0.45288575 1.21 4286548625
-0.32720193 0.4543829 1.2140001 4288266923
-0.32488954 0.4543829 1.2140001 4289964701
-0.32257715 0.4543829 1.2140001 4288186256
-0.17731525 0.29156858 0.77900004 4281347625
-0.17650859 0.29269144 0.78200006 4281479980
-0.17501907 0.29269144 0.78200006 4281481007
-0.17352954 0.29269144 0.78200006 4281480500
-0.17204002 0.29269144 0.78200006 4281676601
-0.17098668 0.29344001 0.78400004 4281873466
-0.17035811 0.29493716 0.78800005 4281809724
-0.16885714 0.29493716 0.78800005 4281743164
-0.16756858 0.29531145 0.78900003 4281808956
-0.16606572 0.29531145 0.78900003 4281939781
-0.16498001 0.29606 0.79100001 4282006351
-0.16347334 0.29606 0.79100001 4282137170
-0.1623762 0.29680857 0.79300004 4282204245
-0.16086572 0.29680857 0.79300004 4282268498
-0.05430286 0.4963029 1.3260001 4283779625
-0.051777147 0.4963029 1.3260001 4282994759
-0.049065717 0.49443144 1.3210001 4284570724
-0.046373338 0.49256003 1.3160001 4286154362
-0.043700002 0.49068859 1.3110001 4289048720
-0.041360006 0.49256003 1.3160001 4292001437
-0.038853336 0.49256003 1.3160001 4292333483
-0.036346667 0.49256003 1.3160001 4292724903
-0.03371143 0.49068859 1.3110001 4292526756
-0.031214288 0.49068859 1.3110001 4292395155
-0.028717143 0.49068859 1.3110001 4291477379
-0.026220001 0.49068859 1.3110001 4290622842
-0.023632383 0.48881719 1.3060001 4289965169
-0.021144763 0.48881719 1.3060001 4289368411
-0.018657144 0.48881719 1.3060001 4286805573
-0.016169524 0.48881719 1.3060001 4284237356
-0.013734287 0.49068859 1.3110001 4281406994
-0.011237144 0.49068859 1.3110001 4278590488
-0.0087400004 0.49068859 1.3110001 4280951582
-0.0062428573 0.49068859 1.3110001 4283317049
-0.0037457147 0.49068859 1.3110001 4284699731
-0.0012485716 0.49068859 1.3110001 4286076223
0.0012438096 0.48881719 1.3060001 4285818922
0.0037314286 0.48881719 1.3060001 4285621303
0.0061952388 0.48694578 1.3010001 4284703043
0.0087066675 0.48881719 1.3060001 4283847485
0.01115143 0.48694578 1.3010001 4283188535
0.013577144 0.48507428 1.296 4282598206
0.016107621 0.48694578 1.3010001 4282139206
0.018585715 0.48694578 1.3010001 4281680698
0.021063812 0.48694578 1.3010001 4281615663
0.023451429 0.48507428 1.296 4281547047
0.02592 0.48507428 1.296 4280757791
0.028388571 0.48507428 1.296 4279967780
0.030738097 0.48320284 1.291 4280095273
0.033197142 0.48320284 1.291 4280289848
0.035656188 0.48320284 1.291 4279239238
0.037997145 0.48170573 1.2870001 4278255936
0.040448572 0.48170573 1.2870001 4278255930
0.0429 0.48170573 1.2870001 4278321482
0.045175239 0.47983429 1.2820001 4278255963
0.047617145 0.47983429 1.2820001 4278255966
0.05005905 0.47983429 1.2820001 4278255969
0.052500956 0.47983429 1.2820001 4278255964
0.054728575 0.47796288 1.2770001 4278255960
0.057160955 0.47796288 1.2770001 4278255971
0.059593335 0.47796288 1.2770001 4278255982
0.062268574 0.47983429 1.2820001 4278257255
0.064710483 0.47983429 1.2820001 4280617824
0.067152381 0.47983429 1.2820001 4282985071
0.069594286 0.47983429 1.2820001 4284369535
0.072036192 0.47983429 1.2820001 4285750152
0.074478097 0.47983429 1.2820001 4287065232
0.076620005 0.47796288 1.2770001 4288445849
0.079052381 0.47796288 1.2770001 4288647075
0.081484765 0.47796288 1.2770001 4288911270
0.083917148 0.47796288 1.2770001 4289044649
0.086349532 0.47796288 1.2770001 4289241261
0.088434286 0.47609144 1.2720001 4289110449
0.090857148 0.47609144 1.2720001 4288977578
0.09328001 0.47609144 1.2720001 4288779428
0.096079051 0.47796288 1.2770001 4288579237
0.098511435 0.47796288 1.2770001 4288248231
0.10133905 0.47983429 1.2820001 4287914651
0.10337619 0.47796288 1.2770001 4286663823
0.10622286 0.47983429 1.2820001 4285409154
0.10866477 0.47983429 1.2820001 4283106165
0.11110667 0.47983429 1.2820001 4280812144
0.11310572 0.47796288 1.2770001 4279959916
0.11553811 0.47796288 1.2770001 4279107944
0.11750858 0.47609144 1.2720001 4278649189
0.11993144 0.47609144 1.2720001 4278255970
0.12283524 0.47796288 1.2770001 4278255968
0.12477715 0.47609144 1.2720001 4278255965
0.1287 0.48170573 1.2870001 4278255963
0.13115142 0.48170573 1.2870001 4278255951
0.13401809 0.48320284 1.291 4278518083
0.13605429 0.48170573 1.2870001 4278845758
0.13850571 0.48170573 1.2870001 4279304505
0.14139523 0.48320284 1.291 4279836211
0.14385428 0.48320284 1.291 4281023532
0.14586 0.48170573 1.2870001 4282207021
0.14831144 0.48170573 1.2870001 4283718446
0.15123142 0.48320284 1.291 4285294659
0.15369047 0.48320284 1.291 4285560152
0.15614952 0.48320284 1.291 4285886566
0.15860857 0.48320284 1.291 4286212980
0.16056858 0.48170573 1.2870001 4286619001
0.16542667 0.48881719 1.3060001 4288654974
0.1679143 0.48881719 1.3060001 4290752382
0.17170668 0.49256003 1.3160001 4291015039
0.17421333 0.49256003 1.3160001 4291341688
0.17672001 0.49256003 1.3160001 4289967217
0.17990763 0.49443144 1.3210001 4288633425
0.18242382 0.49443144 1.3210001 4284023089
0.18494001 0.49443144 1.3210001 4279435832
0.18745619 0.49443144 1.3210001 4281599040
0.18997239 0.49443144 1.3210001 4283771199
0.19321716 0.4963029 1.3260001 4285419071
0.2725381 0.49817428 1.3310001 4294901186
0.27507335 0.49817428 1.3310001 4294639030
0.28161716 0.4963029 1.3260001 4290219887
0.28414285 0.4963029 1.3260001 4287647065
0.28558764 0.49443144 1.3210001 4285146961
0.28810385 0.49443144 1.3210001 4282450249
0.29062003 0.49443144 1.3210001 4279838080
0.29313621 0.49443144 1.3210001 4285614775
0.29453334 0.49256003 1.3160001 4291422426
0.29704002 0.49256003 1.3160001 4293132030
0.29954669 0.49256003 1.3160001 4294901502
0.30090573 0.49068859 1.3110001 4294901502
0.30224574 0.48881719 1.3060001 4294901501
0.30356669 0.48694578 1.3010001 4294901500
0.30486858 0.48507428 1.296 4294901455
0.30401716 0.47983429 1.2820001 4293656226
0.30645907 0.47983429 1.2820001 4292463001
-0.37990001 0.24640477 0.65500003 4287269522
-0.3792305 0.24678095 0.65600002 4287334035
-0.37913334 0.24753337 0.65800005 4287399055
-0.37902859 0.24828573 0.66000003 4287267723
-0.3789162 0.24903812 0.66200006 4287136391
-0.37765527 0.24903812 0.66200006 4287070596
-0.37866858 0.25054285 0.66600001 4287071375
-0.37796667 0.25091907 0.66700006 4287071130
-0.37839046 0.2520476 0.67000002 4287070866
-0.3771143 0.2520476 0.67000002 4287070858
-0.37639904 0.25242382 0.671 4287070602
-0.37512097 0.25242382 0.671 4287005067
-0.37440002 0.25280002 0.67200005 4287005072
-0.37645143 0.25505716 0.67800003 4286874262
-0.37626669 0.25580952 0.68000001 4286742925
-0.37497142 0.25580952 0.68000001 4286546052
-0.37367621 0.25580952 0.68000001 4286349434
-0.37457144 0.25731426 0.68400002 4285954673
-0.37818003 0.26070002 0.69300002 4285625202
-0.37740383 0.26107618 0.69400001 4285228148
-0.37770763 0.26220477 0.69700003 4284834158
-0.37692001 0.26258093 0.69800001 4284703336
-0.37666669 0.26333335 0.70000005 4284571240
-0.37962285 0.26634285 0.708 4284636776
-0.37934288 0.26709524 0.71000004 4284767851
-0.37799048 0.26709524 0.71000004 4284703342
-0.37716857 0.26747143 0.71100003 4284704592
-0.37740001 0.26860002 0.71400005 4282007090
-0.37709332 0.26935238 0.71600002 4279306290
-0.37625429 0.26972857 0.71700001 4279307059
-0.37332001 0.26860002 0.71400005 4279242288
-0.37196001 0.26860002 0.71400005 4279438637
-0.37060001 0.26860002 0.71400005 4279634987
-0.45552862 0.44428101 1.1810001 4279245609
-0.45174384 0.4427762 1.177 4279508262
-0.44950193 0.4427762 1.177 4279836714
-0.44878006 0.44428101 1.1810001 4280099630
-0.44653052 0.44428101 1.1810001 4280428333
-0.44428101 0.44428101 1.1810001 4280297516
-0.44053429 0.4427762 1.177 4280232233
-0.43829241 0.4427762 1.177 4280232231
-0.43753242 0.44428101 1.1810001 4280231723
-0.43528292 0.44428101 1.1810001 4280164399
-0.43303338 0.44428101 1.1810001 4280163885
-0.42932478 0.4427762 1.177 4280164396
-0.42708287 0.4427762 1.177 4280164917
-0.42484096 0.4427762 1.177 4280428095
-0.41154 0.45030001 1.197 4279308582
-0.40926 0.45030001 1.197 4279374628
-0.40698001 0.45030001 1.197 4279506983
-0.40469998 0.45030001 1.197 4279572523
-0.40107527 0.44879526 1.1930001 4279704363
-0.39880291 0.44879526 1.1930001 4279900971
-0.39653051 0.44879526 1.1930001 4280097833
-0.39485431 0.46008098 1.223 4281084498
-0.39252478 0.46008098 1.223 4281412177
-0.39019525 0.46008098 1.223 4282930256
-0.38913432 0.46158576 1.2270001 4284438871
-0.38553619 0.46008098 1.223 4284442975
-0.38320667 0.46008098 1.223 4284508767
-0.37682858 0.45519048 1.21 4285232223
-0.3705 0.45030001 1.197 4285887613
-0.36822 0.45030001 1.197 4286680475
-0.36471719 0.44879526 1.1930001 4287404437
-0.36244479 0.44879526 1.1930001 4287337872
-0.36017242 0.44879526 1.1930001 4287205518
-0.3567 0.44729048 1.189 4286743181
-0.35443524 0.44729048 1.189 4286281869
-0.35217047 0.44729048 1.189 4288190861
-0.3499057 0.44729048 1.189 4290100899
-0.34764096 0.44729048 1.189 4289769658
-0.34537616 0.44729048 1.189 4289506746
-0.34311143 0.44729048 1.189 4289769658
-0.34084666 0.44729048 1.189 4289966530
-0.33972096 0.44879526 1.1930001 4289640138
-0.33744857 0.44879526 1.1930001 4289313978
-0.33882859 0.45368573 1.2060001 4287599275
-0.33653146 0.45368573 1.2060001 4285950359
-0.33534285 0.45519048 1.21 4286086532
-0.33303809 0.45519048 1.21 4286218879
-0.33073336 0.45519048 1.21 4287008379
-0.32842857 0.45519048 1.21 4287798180
-0.32720193 0.45669526 1.2140001 4287995086
-0.32488954 0.45669526 1.2140001 4288257445
-0.32257715 0.45669526 1.2140001 4287398524
-0.17935716 0.29154763 0.77500004 4281086262
-0.17834 0.29230002 0.77700001 4280954923
-0.17731525 0.29305241 0.77900004 4281348128
-0.17583144 0.29305241 0.77900004 4281742633
-0.17457142 0.29342857 0.78000003 4281611058
-0.17308572 0.29342857 0.78000003 4281545015
-0.1716 0.29342857 0.78000003 4281611069
-0.17011429 0.29342857 0.78000003 4281677116
-0.1699257 0.29568571 0.78600001 4281677372
-0.16842857 0.29568571 0.78600001 4281743160
-0.16693142 0.29568571 0.78600001 4281808693
-0.16606572 0.29681429 0.78900003 4281940034
-0.16498001 0.29756668 0.79100001 4282071887
-0.16347334 0.29756668 0.79100001 4282202703
-0.1623762 0.29831907 0.79300004 4282071119
-0.16086572 0.29831907 0.79300004 4282005070
-0.051777147 0.49882859 1.3260001 4283780409
-0.049065717 0.49694765 1.3210001 4283912753
-0.046373338 0.49506673 1.3160001 4284033619
-0.043700002 0.49318573 1.3110001 4286018165
-0.041360006 0.49506673 1.3160001 4288000663
-0.038853336 0.49506673 1.3160001 4289972154
-0.036346667 0.49506673 1.3160001 4291943602
-0.03371143 0.49318573 1.3110001 4292269227
-0.031214288 0.49318573 1.3110001 4292660642
-0.028717143 0.49318573 1.3110001 4292201626
-0.026220001 0.49318573 1.3110001 4291742880
-0.023632383 0.49130481 1.3060001 4291020455
-0.021144763 0.49130481 1.3060001 4290363800
-0.018657144 0.49130481 1.3060001 4288584586
-0.016169524 0.49130481 1.3060001 4286812485
-0.013734287 0.49318573 1.3110001 4284640769
-0.011237144 0.49318573 1.3110001 4282534657
-0.0087400004 0.49318573 1.3110001 4282329345
-0.0062428573 0.49318573 1.3110001 4282125857
-0.0037457147 0.49318573 1.3110001 4282265922
-0.0012485716 0.49318573 1.3110001 4282469684
0.0012438096 0.49130481 1.3060001 4283195943
0.0037314286 0.49130481 1.3060001 4283922494
0.0062190481 0.49130481 1.3060001 4284051286
0.0087066675 0.49130481 1.3060001 4284180035
0.01115143 0.48942381 1.3010001 4284308017
0.013629524 0.48942381 1.3010001 4284501823
0.016107621 0.48942381 1.3010001 4284042830
0.018585715 0.48942381 1.3010001 4283583820
0.021063812 0.48942381 1.3010001 4283255626
0.023541907 0.48942381 1.3010001 4282927428
0.02592 0.48754287 1.296 4282204734
0.028388571 0.48754287 1.296 4281482305
0.030738097 0.48566189 1.291 4281414469
0.033197142 0.48566189 1.291 4281412165
0.035656188 0.48566189 1.291 4280885829
0.037997145 0.48415715 1.2870001 4280359462
0.040448572 0.48415715 1.2870001 4280424967
0.0429 0.48415715 1.2870001 4280490776
0.045351431 0.48415715 1.2870001 4280357929
0.047617145 0.4822762 1.2820001 4280225046
0.05005905 0.4822762 1.2820001 4279895812
0.052500956 0.4822762 1.2820001 4279632386
0.054942857 0.4822762 1.2820001 4279435521
0.057384763 0.4822762 1.2820001 4279173377
0.059826672 0.4822762 1.2820001 4279173378
0.062268574 0.4822762 1.2820001 4279238920
0.064710483 0.4822762 1.2820001 4280287502
0.067152381 0.4822762 1.2820001 4281401621
0.069594286 0.4822762 1.2820001 4281991452
0.072036192 0.4822762 1.2820001 4282581293
0.074478097 0.4822762 1.2820001 4283040063
0.076920003 0.4822762 1.2820001 4283564363
0.079361908 0.4822762 1.2820001 4283564376
0.081803814 0.4822762 1.2820001 4283564380
0.083917148 0.48039526 1.2770001 4283629920
0.086349532 0.48039526 1.2770001 4283695462
0.088781908 0.48039526 1.2770001 4283695469
0.090857148 0.47851431 1.2720001 4283629923
0.093646668 0.48039526 1.2770001 4283629914
0.096079051 0.48039526 1.2770001 4283629917
0.098511435 0.48039526 1.2770001 4283564384
0.10094381 0.48039526 1.2770001 4283498825
0.10337619 0.48039526 1.2770001 4283433266
0.10622286 0.4822762 1.2820001 4283433255
0.10866477 0.4822762 1.2820001 4282253596
0.11067334 0.48039526 1.2770001 4281008418
0.11310572 0.48039526 1.2770001 4280618281
0.11553811 0.48039526 1.2770001 4280162583
0.11797048 0.48039526 1.2770001 4279959813
0.12040286 0.48039526 1.2770001 4279832835
0.12283524 0.48039526 1.2770001 4280093441
0.12526762 0.48039526 1.2770001 4280419841
0.1287 0.48415715 1.2870001 4281143297
0.13115142 0.48415715 1.2870001 4281801495
0.13401809 0.48566189 1.291 4281868846
0.13647714 0.48566189 1.291 4281936454
0.13893619 0.48566189 1.291 4282336606
0.14139523 0.48566189 1.291 4282802267
0.14385428 0.48566189 1.291 4283591256
0.14586 0.48415715 1.2870001 4284380506
0.14877237 0.48566189 1.291 4285824348
0.15123142 0.48566189 1.291 4287333992
0.15369047 0.48566189 1.291 4288120180
0.15614952 0.48566189 1.291 4288906363
0.15811715 0.48415715 1.2870001 4288978819
0.16056858 0.48415715 1.2870001 4289116814
0.16542667 0.49130481 1.3060001 4289115289
0.1679143 0.49130481 1.3060001 4289179284
0.17170668 0.49506673 1.3160001 4287146639
0.17487526 0.49694765 1.3210001 4285113938
0.17672001 0.49506673 1.3160001 4285485846
0.17990763 0.49694765 1.3210001 4285858059
0.18242382 0.49694765 1.3210001 4284221441
0.18494001 0.49694765 1.3210001 4282650398
0.28161716 0.49882859 1.3260001 4292542163
0.28414285 0.49882859 1.3260001 4291296681
0.28558764 0.49694765 1.3210001 4290051485
0.28919432 0.49882859 1.3260001 4288536978
0.29062003 0.49694765 1.3210001 4287022758
0.29313621 0.49694765 1.3210001 4290044603
0.29453334 0.49506673 1.3160001 4293066460
0.29704002 0.49506673 1.3160001 4293983998
0.2984086 0.49318573 1.3110001 4294901502
0.30090573 0.49318573 1.3110001 4294901502
0.30224574 0.49130481 1.3060001 4294901500
0.30356669 0.48942381 1.3010001 4294049530
0.30486858 0.48754287 1.296 4293197564
0.30615145 0.48566189 1.291 4293459710
0.30980569 0.48754287 1.296 4293656312
0.34346002 0.49694765 1.3210001 4290575578
0.35177144 0.48754287 1.296 4287541866
0.36025047 0.48566189 1.291 4286858264
-0.38047999 0.24803048 0.65600002 4287268236
-0.37980857 0.24840857 0.65700001 4287399311
-0.38028574 0.24954288 0.66000003 4287596172
-0.37960285 0.24992095 0.66100001 4287334538
-0.3789162 0.25029907 0.66200006 4287136907
-0.37765527 0.25029907 0.66200006 4287135628
-0.37866858 0.25181144 0.66600001 4287136656
-0.37910002 0.25294572 0.66900003 4287137684
-0.37839046 0.25332382 0.67000002 4287136655
-0.37767714 0.2537019 0.671 4287070859
-0.37639904 0.2537019 0.671 4287071114
-0.37568003 0.25408003 0.67200005 4286874760
-0.3755143 0.2548362 0.67400002 4286678157
-0.37700668 0.25672668 0.67900002 4286678162
-0.37737337 0.25786099 0.68200004 4286677388
-0.37662575 0.25823906 0.68300003 4286480774
-0.37532476 0.25823906 0.68300003 4286348927
-0.37730953 0.26050761 0.68900001 4285954424
-0.37708858 0.26126382 0.69100004 4285624951
-0.37685999 0.26201999 0.69300002 4285095543
-0.37662381 0.2627762 0.69500005 4284571761
-0.37530002 0.2627762 0.69500005 4284375659
-0.37343812 0.26239809 0.69400001 4284244329
-0.37962285 0.2676914 0.708 4284440935
-0.37934288 0.26844764 0.71000004 4284636522
-0.37799048 0.26844764 0.71000004 4284702573
-0.37663811 0.26844764 0.71000004 4284835663
-0.37740001 0.26996002 0.71400005 4282337328
-0.37762001 0.27109429 0.71700001 4279836467
-0.37572953 0.27071619 0.71600002 4279700278
-0.37332001 0.26996002 0.71400005 4279569966
-0.37196001 0.26996002 0.71400005 4279701799
-0.37060001 0.26996002 0.71400005 4279898153
-0.46242955 0.45106766 1.1930001 4279376930
-0.45861429 0.44955522 1.189 4278984486
-0.45327911 0.44653052 1.1810001 4279444266
-0.45102957 0.44653052 1.1810001 4279969325
-0.45030004 0.4480429 1.1850001 4280297776
-0.44955522 0.44955522 1.189 4280625197
-0.44578573 0.4480429 1.1850001 4280363050
-0.44352859 0.4480429 1.1850001 4280166698
-0.43978196 0.44653052 1.1810001 4280035626
-0.43901432 0.4480429 1.1850001 4279968302
-0.43675718 0.4480429 1.1850001 4280098354
-0.43303338 0.44653052 1.1810001 4280295219
-0.43078384 0.44653052 1.1810001 4280427061
-0.4285343 0.44653052 1.1810001 4280559423
-0.42484096 0.44501811 1.177 4280823113
-0.42841718 0.45598289 1.2060001 4280888113
-0.42612001 0.45598289 1.2060001 4280559401
-0.42382288 0.45598289 1.2060001 4280295723
-0.42152572 0.45598289 1.2060001 4280098350
-0.41922858 0.45598289 1.2060001 4279900201
-0.41693148 0.45598289 1.2060001 4279703844
-0.41325903 0.45447049 1.202 4279506726
-0.41096953 0.45447049 1.202 4279506216
-0.40868002 0.45447049 1.202 4279506987
-0.40639049 0.45447049 1.202 4279572782
-0.40242001 0.45258 1.197 4279638829
-0.40013999 0.45258 1.197 4279967020
-0.39526665 0.45749527 1.21 4281019451
-0.39296192 0.45749527 1.21 4281150272
-0.39356288 0.46089813 1.2190001 4281481542
-0.39124098 0.46089813 1.2190001 4281813587
-0.39019525 0.46241048 1.223 4283325535
-0.38786572 0.46241048 1.223 4284833375
-0.38553619 0.46241048 1.223 4284706654
-0.38320667 0.46241048 1.223 4284575851
-0.37807432 0.45900765 1.2140001 4285691768
-0.36926195 0.45106766 1.1930001 4286875526
-0.36698955 0.45106766 1.1930001 4287076501
-0.36349428 0.44955522 1.189 4287337874
-0.36122954 0.44955522 1.189 4287271567
-0.35896474 0.44955522 1.189 4287204488
-0.35550001 0.4480429 1.1850001 4287002753
-0.35324287 0.4480429 1.1850001 4286810770
-0.35098574 0.4480429 1.1850001 4288722339
-0.34872857 0.4480429 1.1850001 4290687917
-0.34647143 0.4480429 1.1850001 4290097591
-0.34421429 0.4480429 1.1850001 4289573303
-0.34195715 0.4480429 1.1850001 4289900982
-0.34084666 0.44955522 1.189 4290294719
-0.33858192 0.44955522 1.189 4289312456
-0.33631712 0.44955522 1.189 4288390573
-0.33770475 0.45447049 1.202 4287201170
-0.33653146 0.45598289 1.2060001 4286020747
-0.3342343 0.45598289 1.2060001 4286216579
-0.33193716 0.45598289 1.2060001 4286414729
-0.32964003 0.45598289 1.2060001 4287731343
-0.32842857 0.45749527 1.21 4289041824
-0.32612383 0.45749527 1.21 4287796401
-0.32381904 0.45749527 1.21 4286613915
-0.32151428 0.45749527 1.21 4286611077
-0.18176667 0.2945362 0.77900004 4281217850
-0.17982 0.29378 0.77700001 4280954170
-0.17834 0.29378 0.77700001 4280758070
-0.17731525 0.2945362 0.77900004 4281348657
-0.17583144 0.2945362 0.77900004 4282004019
-0.17434764 0.2945362 0.77900004 4281807413
-0.17286381 0.2945362 0.77900004 4281676348
-0.1716 0.29491428 0.78000003 4281611075
-0.1698962 0.2945362 0.77900004 4281546048
-0.16906096 0.29567051 0.78200006 4281611581
-0.16757144 0.29567051 0.78200006 4281742910
-0.16693142 0.29718286 0.78600001 4281807679
-0.16498001 0.29907334 0.79100001 4282072154
-0.16388667 0.29982954 0.79300004 4282267733
-0.1623762 0.29982954 0.79300004 4282004559
-0.16086572 0.29982954 0.79300004 4281807951
-0.049065717 0.49946383 1.3210001 4283255089
-0.046373338 0.49757335 1.3160001 4282007354
-0.043700002 0.4956829 1.3110001 4282987843
-0.041360006 0.49757335 1.3160001 4283983461
-0.038705718 0.4956829 1.3110001 4287535240
-0.036346667 0.49757335 1.3160001 4291148190
-0.03371143 0.4956829 1.3110001 4292008628
-0.031214288 0.4956829 1.3110001 4292925358
-0.028717143 0.4956829 1.3110001 4292859304
-0.026220001 0.4956829 1.3110001 4292857763
-0.023632383 0.49379241 1.3060001 4292135326
-0.021144763 0.49379241 1.3060001 4291409044
-0.018657144 0.49379241 1.3060001 4290422410
-0.016169524 0.49379241 1.3060001 4289435238
-0.013734287 0.4956829 1.3110001 4287920706
-0.011237144 0.4956829 1.3110001 4286473259
-0.0087400004 0.4956829 1.3110001 4283707157
-0.0062428573 0.4956829 1.3110001 4281016867
-0.0037457147 0.4956829 1.3110001 4279899442
-0.0012485716 0.4956829 1.3110001 4278863139
0.0012485716 0.4956829 1.3110001 4280484116
0.0037314286 0.49379241 1.3060001 4282196257
0.0062190481 0.49379241 1.3060001 4283318575
0.0087066675 0.49379241 1.3060001 4284502820
0.011194286 0.49379241 1.3060001 4285425689
0.013629524 0.49190196 1.3010001 4286408754
0.016231429 0.4956829 1.3110001 4285950283
0.018657144 0.49379241 1.3060001 4285556051
0.021144763 0.49379241 1.3060001 4284965211
0.023632383 0.49379241 1.3060001 4284373067
0.026120001 0.49379241 1.3060001 4283649852
0.028388571 0.49001145 1.296 4282995006
0.030857144 0.49001145 1.296 4282798913
0.033197142 0.48812091 1.291 4282600517
0.035656188 0.48812091 1.291 4282533450
0.038115237 0.48812091 1.291 4282468157
0.040448572 0.48660859 1.2870001 4282599728
0.0429 0.48660859 1.2870001 4282728758
0.045351431 0.48660859 1.2870001 4282464572
0.047617145 0.48471811 1.2820001 4282201651
0.05005905 0.48471811 1.2820001 4281611051
0.052500956 0.48471811 1.2820001 4281085737
0.054942857 0.48471811 1.2820001 4280626215
0.057384763 0.48471811 1.2820001 4280167720
0.059826672 0.48471811 1.2820001 4280168233
