# .PCD v0.7 - Point Cloud Data file format
VERSION 0.7
FIELDS x y z rgba
SIZE 4 4 4 4
TYPE F F F U
COUNT 1 1 1 1
WIDTH 1133
HEIGHT 1
VIEWPOINT 0 0 0 1 0 0 0
POINTS 1133
DATA ascii
-0.40926 0.45714 1.197 4279573022
-0.40698001 0.45714 1.197 4279638568
-0.40469998 0.45714 1.197 4279835186
-0.40242001 0.45714 1.197 4280032562
-0.39880291 0.45561242 1.1930001 4280229938
-0.39786002 0.45714 1.197 4280428597
-0.39557999 0.45714 1.197 4280560183
-0.39494285 0.45904952 1.202 4280692546
-0.39265335 0.45904952 1.202 4280299342
-0.39036381 0.45904952 1.202 4279972942
-0.38936576 0.46057719 1.2060001 4282142542
-0.38835239 0.46210477 1.21 4284374616
-0.38604763 0.46210477 1.21 4284507747
-0.38374287 0.46210477 1.21 4284704364
-0.38143811 0.46210477 1.21 4285163124
-0.36628667 0.44644669 1.169 4285692539
-0.36405998 0.44644669 1.169 4286683523
-0.36307147 0.44797432 1.1730001 4287665288
-0.36329812 0.45102957 1.1810001 4287337614
-0.36104861 0.45102957 1.1810001 4287074179
-0.3587991 0.45102957 1.1810001 4286286712
-0.35654956 0.45102957 1.1810001 4285566854
-0.35430005 0.45102957 1.1810001 4287796373
-0.35205051 0.45102957 1.1810001 4290093481
-0.35098574 0.45255718 1.1850001 4289834684
-0.34872857 0.45255718 1.1850001 4289572537
-0.34647143 0.45255718 1.1850001 4289638327
-0.34305242 0.45102957 1.1810001 4289704890
-0.34080291 0.45102957 1.1810001 4289841085
-0.34084666 0.45408475 1.189 4289967276
-0.33858192 0.45408475 1.189 4287856283
-0.33744857 0.45561242 1.1930001 4285759375
-0.33630002 0.45714 1.197 4286152836
-0.33541524 0.45904952 1.202 4286611331
-0.33312571 0.45904952 1.202 4286937730
-0.33193716 0.46057719 1.2060001 4287271573
-0.32964003 0.46057719 1.2060001 4287804584
-0.32842857 0.46210477 1.21 4288391069
-0.32504573 0.46057719 1.2060001 4287466130
-0.32274857 0.46057719 1.2060001 4286611342
-0.1788943 0.29521239 0.77300006 4281216046
-0.17673334 0.29406667 0.77000004 4281347889
-0.17526668 0.29406667 0.77000004 4281545268
-0.17380001 0.29406667 0.77000004 4281806905
-0.17233334 0.29406667 0.77000004 4281936957
-0.17086667 0.29406667 0.77000004 4282134850
-0.16940001 0.29406667 0.77000004 4281872710
-0.16793333 0.29406667 0.77000004 4281676605
-0.031095238 0.49876767 1.3060001 4290229146
-0.023632383 0.49876767 1.3060001 4290485366
-0.018657144 0.49876767 1.3060001 4290626702
-0.0037314286 0.49876767 1.3060001 4286541068
-0.0012438096 0.49876767 1.3060001 4285162270
0.0062190481 0.49876767 1.3060001 4282129162
0.0087066675 0.49876767 1.3060001 4279242516
0.01115143 0.49685815 1.3010001 4279698463
0.013629524 0.49685815 1.3010001 4280227362
0.016107621 0.49685815 1.3010001 4281215269
0.018514287 0.49494854 1.296 4282268984
0.020901905 0.49303901 1.291 4283388491
0.023360951 0.49303901 1.291 4284504633
0.02582 0.49303901 1.291 4285424168
0.028279047 0.49303901 1.291 4286404658
0.030738097 0.49303901 1.291 4286281019
0.033094287 0.49151146 1.2870001 4286148674
0.035545714 0.49151146 1.2870001 4285885513
0.037997145 0.49151146 1.2870001 4285688393
0.040448572 0.49151146 1.2870001 4285163850
0.0429 0.49151146 1.2870001 4284637002
0.045175239 0.48960194 1.2820001 4284568907
0.047617145 0.48960194 1.2820001 4284502338
0.05005905 0.48960194 1.2820001 4283977018
0.052500956 0.48960194 1.2820001 4283519043
0.054942857 0.48960194 1.2820001 4283716685
0.057384763 0.48960194 1.2820001 4283979854
0.059826672 0.48960194 1.2820001 4283718735
0.062268574 0.48960194 1.2820001 4283455563
0.064962864 0.49151146 1.2870001 4283454536
0.067414291 0.49151146 1.2870001 4283454787
0.069865711 0.49151146 1.2870001 4283979581
0.072317146 0.49151146 1.2870001 4284500808
0.074768573 0.49151146 1.2870001 4284694612
0.07722 0.49151146 1.2870001 4284893256
0.079671435 0.49151146 1.2870001 4285485117
0.082122862 0.49151146 1.2870001 4286073915
0.08457429 0.49151146 1.2870001 4286204218
0.087025717 0.49151146 1.2870001 4286401853
0.08912953 0.48960194 1.2820001 4286402881
0.091571428 0.48960194 1.2820001 4286400567
0.094013333 0.48960194 1.2820001 4285939756
0.096831433 0.49151146 1.2870001 4285545526
0.099282861 0.49151146 1.2870001 4285086017
0.10133905 0.48960194 1.2820001 4284695618
0.10378096 0.48960194 1.2820001 4284370755
0.10622286 0.48960194 1.2820001 4284045901
0.10866477 0.48960194 1.2820001 4284179798
0.11110667 0.48960194 1.2820001 4284376929
0.11354858 0.48960194 1.2820001 4284705132
0.11553811 0.48769242 1.2770001 4285095274
0.11843238 0.48960194 1.2820001 4285354344
0.12134572 0.49151146 1.2870001 4285632872
0.12379714 0.49151146 1.2870001 4285818472
0.12664096 0.49303901 1.291 4286017396
0.12910001 0.49303901 1.291 4287003008
0.13155904 0.49303901 1.291 4288057476
0.13453715 0.49494854 1.296 4289177480
0.13700572 0.49494854 1.296 4290296438
0.13947429 0.49494854 1.296 4290891109
0.14194284 0.49494854 1.296 4291525241
0.14385428 0.49303901 1.291 4291412109
0.14631332 0.49303901 1.291 4291275127
0.14877237 0.49303901 1.291 4289631072
0.15123142 0.49303901 1.291 4288040787
0.15369047 0.49303901 1.291 4284681285
0.15675429 0.49494854 1.296 4281402958
0.15860857 0.49303901 1.291 4280090967
0.29229528 0.49876767 1.3060001 4294901491
0.29478288 0.49876767 1.3060001 4294901502
0.29727051 0.49876767 1.3060001 4294901502
0.30473337 0.49876767 1.3060001 4292526784
0.30604479 0.49685815 1.3010001 4290167246
0.30733714 0.49494854 1.296 4291674333
0.30980569 0.49494854 1.296 4293259501
0.31227428 0.49494854 1.296 4294049534
0.31474286 0.49494854 1.296 4294901502
0.31721142 0.49494854 1.296 4294901502
0.32091337 0.49685815 1.3010001 4294901502
0.34951049 0.49876767 1.3060001 4293916402
0.35199812 0.49876767 1.3060001 4293455601
0.35312861 0.49685815 1.3010001 4293715952
0.35424 0.49494854 1.296 4294046966
0.35533237 0.49303901 1.291 4294442749
0.35917711 0.49494854 1.296 4294901498
0.3616457 0.49494854 1.296 4294901495
0.36411428 0.49494854 1.296 4294901493
0.36658284 0.49494854 1.296 4294901490
0.36762762 0.49303901 1.291 4294901491
0.37008667 0.49303901 1.291 4294901492
0.37254572 0.49303901 1.291 4294901491
0.37500477 0.49303901 1.291 4294901491
0.37746382 0.49303901 1.291 4294901492
0.37992287 0.49303901 1.291 4294901493
0.38386285 0.49494854 1.296 4294901492
0.38633144 0.49494854 1.296 4294901491
0.3888 0.49494854 1.296 4294901479
0.39126858 0.49494854 1.296 4294901468
0.4026905 0.49685815 1.3010001 4294901428
0.40205428 0.49303901 1.291 4294899617
0.49918574 0.48234573 1.263 4289967042
0.49841052 0.47699907 1.2490001 4290170071
-0.38047999 0.25177905 0.65600002 4287136653
-0.38038671 0.25254667 0.65800005 4287071630
-0.38028574 0.25331429 0.66000003 4287071630
-0.37960285 0.25369808 0.66100001 4286875022
-0.37948862 0.25446573 0.66300005 4286678415
-0.37765527 0.2540819 0.66200006 4286809488
-0.38037428 0.25676858 0.66900003 4286875015
-0.37966669 0.25715238 0.67000002 4286940286
-0.37952003 0.25792 0.67200005 4287071362
-0.37824002 0.25792 0.67200005 4287005574
-0.37696004 0.25792 0.67200005 4287005318
-0.37679809 0.25868762 0.67400002 4286939782
-0.3755143 0.25868762 0.67400002 4286874247
-0.37478569 0.25907141 0.67500001 4286873992
-0.37571335 0.26060665 0.67900002 4286808198
-0.37607431 0.26175809 0.68200004 4286677124
-0.37752286 0.26367715 0.68700004 4286480512
-0.3762143 0.26367715 0.68700004 4286152572
-0.37708858 0.26521239 0.69100004 4285887863
-0.37685999 0.26598001 0.69300002 4285425778
-0.37608191 0.2663638 0.69400001 4284966251
-0.37476 0.2663638 0.69400001 4284703332
-0.37343812 0.2663638 0.69400001 4284506983
-0.37211621 0.2663638 0.69400001 4284572522
-0.3825486 0.27480763 0.71600002 4284703077
-0.38118479 0.27480763 0.71600002 4284572256
-0.38035145 0.27519143 0.71700001 4284506978
-0.3789857 0.27519143 0.71700001 4283257956
-0.37867334 0.27595907 0.71900004 4282007365
-0.37730384 0.27595907 0.71900004 4281342247
-0.37645715 0.27634287 0.72000003 4280687149
-0.37612763 0.27711052 0.72200006 4280820532
-0.3747524 0.27711052 0.72200006 4280951872
-0.46470195 0.45788479 1.1930001 4279705135
-0.46242955 0.45788479 1.1930001 4279969069
-0.46015719 0.45788479 1.1930001 4280298546
-0.45788479 0.45788479 1.1930001 4280625975
-0.45714 0.45942003 1.197 4280953400
-0.45676002 0.46133906 1.202 4280821561
-0.45447049 0.46133906 1.202 4280624185
-0.43596667 0.45634952 1.189 4280885295
-0.4337019 0.45634952 1.189 4280953651
-0.43143713 0.45634952 1.189 4281019191
-0.43061623 0.45788479 1.1930001 4280757051
-0.42834383 0.45788479 1.1930001 4280559413
-0.42607147 0.45788479 1.1930001 4280230960
-0.4269962 0.46133906 1.202 4279902242
-0.42470667 0.46133906 1.202 4279834644
-0.42382288 0.46287432 1.2060001 4279833118
-0.42152572 0.46287432 1.2060001 4279702057
-0.41922858 0.46287432 1.2060001 4279637290
-0.41693148 0.46287432 1.2060001 4279441451
-0.41325903 0.46133906 1.202 4279245344
-0.41096953 0.46133906 1.202 4279442197
-0.40868002 0.46133906 1.202 4279703076
-0.40639049 0.46133906 1.202 4279967028
-0.40410095 0.46133906 1.202 4280165174
-0.40013999 0.45942003 1.197 4280296761
-0.39952192 0.46133906 1.202 4280494651
-0.39723238 0.46133906 1.202 4280560446
-0.39494285 0.46133906 1.202 4280627019
-0.39265335 0.46133906 1.202 4281349720
-0.39036381 0.46133906 1.202 4282072408
-0.38936576 0.46287432 1.2060001 4283193945
-0.3870686 0.46287432 1.2060001 4284377439
-0.38477147 0.46287432 1.2060001 4284508773
-0.3824743 0.46287432 1.2060001 4284705900
-0.37607908 0.45788479 1.1930001 4285690228
-0.36628667 0.44867334 1.169 4286678150
-0.36405998 0.44867334 1.169 4287076760
-0.36307147 0.4502086 1.1730001 4287403664
-0.36083716 0.4502086 1.1730001 4287206280
-0.35982573 0.45174384 1.177 4287008372
-0.35758382 0.45174384 1.177 4286808417
-0.35534191 0.45174384 1.177 4286608784
-0.3531 0.45174384 1.177 4288324543
-0.35085809 0.45174384 1.177 4290037438
-0.34861621 0.45174384 1.177 4289768637
-0.34755147 0.45327911 1.1810001 4289571001
-0.34413239 0.45174384 1.177 4289834934
-0.34189048 0.45174384 1.177 4290099132
-0.33964857 0.45174384 1.177 4289314755
-0.34084666 0.45634952 1.189 4288456355
-0.33858192 0.45634952 1.189 4287332739
-0.33744857 0.45788479 1.1930001 4286217862
-0.33630002 0.45942003 1.197 4286348937
-0.33541524 0.46133906 1.202 4286545794
-0.33312571 0.46133906 1.202 4287468412
-0.33083621 0.46133906 1.202 4288391060
-0.32854667 0.46133906 1.202 4287995820
-0.32734287 0.46287432 1.2060001 4287600794
-0.32504573 0.46287432 1.2060001 4287137161
-0.32274857 0.46287432 1.2060001 4286677640
-0.18325049 0.29898763 0.77900004 4281347638
-0.1813 0.29822001 0.77700001 4281216564
-0.17935716 0.29745239 0.77500004 4281282099
-0.17673334 0.29553336 0.77000004 4281414707
-0.17481142 0.29476571 0.76800001 4281545011
-0.17334858 0.29476571 0.76800001 4281676088
-0.17233334 0.29553336 0.77000004 4281807166
-0.17086667 0.29553336 0.77000004 4281872702
-0.16940001 0.29553336 0.77000004 4281676094
-0.16793333 0.29553336 0.77000004 4281413940
0.013629524 0.49933621 1.3010001 4280096024
0.016107621 0.49933621 1.3010001 4280423171
0.018514287 0.49741715 1.296 4280815899
0.020901905 0.49549809 1.291 4281738035
0.023360951 0.49549809 1.291 4282725671
0.02582 0.49549809 1.291 4282794780
0.028279047 0.49549809 1.291 4282863918
0.030738097 0.49549809 1.291 4283062336
0.033197142 0.49549809 1.291 4283261001
0.035656188 0.49549809 1.291 4283724627
0.038115237 0.49549809 1.291 4284188259
0.040448572 0.49396285 1.2870001 4284375923
0.0429 0.49396285 1.2870001 4284639836
0.045351431 0.49396285 1.2870001 4284831557
0.047617145 0.49204379 1.2820001 4285094973
0.05005905 0.49204379 1.2820001 4285292598
0.052500956 0.49204379 1.2820001 4285555773
0.054942857 0.49204379 1.2820001 4285488453
0.057384763 0.49204379 1.2820001 4285486921
0.060060002 0.49396285 1.2870001 4285225038
0.062511429 0.49396285 1.2870001 4284963158
0.064962864 0.49396285 1.2870001 4284899679
0.067623809 0.49549809 1.291 4284836185
0.070082851 0.49549809 1.291 4284769620
0.0725419 0.49549809 1.291 4284768862
0.075000949 0.49549809 1.291 4284894825
0.07722 0.49396285 1.2870001 4285039462
0.079671435 0.49396285 1.2870001 4285500516
0.082122862 0.49396285 1.2870001 4285961822
0.08457429 0.49396285 1.2870001 4286092120
0.087025717 0.49396285 1.2870001 4286222682
0.089477144 0.49396285 1.2870001 4286288733
0.091571428 0.49204379 1.2820001 4286289238
0.094380006 0.49396285 1.2870001 4286225487
0.096831433 0.49396285 1.2870001 4286096455
0.099282861 0.49396285 1.2870001 4286289983
0.10133905 0.49204379 1.2820001 4286417979
0.10378096 0.49204379 1.2820001 4286611512
0.10663714 0.49396285 1.2870001 4286805065
0.10908858 0.49396285 1.2870001 4287066715
0.11154 0.49396285 1.2870001 4287393897
0.11399143 0.49396285 1.2870001 4287788664
0.11553811 0.49012479 1.2770001 4288183407
0.11889429 0.49396285 1.2870001 4288318310
0.12172285 0.49549809 1.291 4288518765
0.12418191 0.49549809 1.291 4287931253
0.12664096 0.49549809 1.291 4287344011
0.12910001 0.49549809 1.291 4287871906
0.13206857 0.49741715 1.296 4288334487
0.13453715 0.49741715 1.296 4287744653
0.13700572 0.49741715 1.296 4287154802
0.1400124 0.49933621 1.3010001 4286030679
0.14194284 0.49741715 1.296 4284972401
0.14385428 0.49549809 1.291 4285228683
0.14631332 0.49549809 1.291 4285484892
0.14877237 0.49549809 1.291 4285212718
0.15123142 0.49549809 1.291 4284940568
0.15369047 0.49549809 1.291 4284285186
0.30604479 0.49933621 1.3010001 4290362565
0.30733714 0.49741715 1.296 4291080640
0.30980569 0.49741715 1.296 4291879903
0.31227428 0.49741715 1.296 4293393406
0.31474286 0.49741715 1.296 4294901502
0.31721142 0.49741715 1.296 4294901502
0.31968001 0.49741715 1.296 4294901502
0.35065052 0.49933621 1.3010001 4293125092
0.35177144 0.49741715 1.296 4293388002
0.35424 0.49741715 1.296 4293716719
0.35533237 0.49549809 1.291 4294311165
0.35779142 0.49549809 1.291 4294901501
0.3616457 0.49741715 1.296 4294901502
0.36411428 0.49741715 1.296 4294901502
0.36516857 0.49549809 1.291 4294901502
0.36762762 0.49549809 1.291 4294901502
0.37008667 0.49549809 1.291 4294901502
0.37254572 0.49549809 1.291 4294901502
0.37500477 0.49549809 1.291 4294901502
0.37746382 0.49549809 1.291 4294901502
0.37992287 0.49549809 1.291 4294901502
0.38386285 0.49741715 1.296 4294901502
0.38633144 0.49741715 1.296 4294901502
0.3888 0.49741715 1.296 4294901502
0.39126858 0.49741715 1.296 4294901502
0.39373714 0.49741715 1.296 4294901502
0.39773431 0.49933621 1.3010001 4294901502
0.40021244 0.49933621 1.3010001 4294901502
0.40114287 0.49741715 1.296 4294901502
0.40205428 0.49549809 1.291 4294901502
0.40451333 0.49549809 1.291 4294573822
0.40413526 0.49204379 1.2820001 4294311645
0.40499145 0.49012479 1.2770001 4292735420
0.40742382 0.49012479 1.2770001 4291159197
0.40536287 0.48475143 1.263 4289513087
0.40776858 0.48475143 1.263 4287866944
0.49678001 0.48475143 1.263 4289242276
0.49918574 0.48475143 1.263 4289109686
0.49801716 0.48129717 1.2540001 4289637833
0.49841052 0.4793781 1.2490001 4290169816
0.49918574 0.47784287 1.245 4291351016
0.49954286 0.47592381 1.24 4292536301
-0.38106 0.25341427 0.65700001 4287006349
-0.38038671 0.2538 0.65800005 4287006608
-0.38028574 0.25457144 0.66000003 4287071631
-0.37960285 0.25495717 0.66100001 4286940814
-0.3789162 0.25534287 0.66200006 4286874766
-0.37765527 0.25534287 0.66200006 4286874511
-0.3769629 0.25572857 0.66300005 4286874505
-0.37966669 0.25842857 0.67000002 4286874755
-0.37952003 0.25920004 0.67200005 4286940037
-0.37824002 0.25920004 0.67200005 4286939015
-0.37808192 0.25997144 0.67400002 4286939782
-0.37679809 0.25997144 0.67400002 4286874502
-0.37607142 0.26035714 0.67500001 4286874504
-0.37645143 0.26151431 0.67800003 4286808971
-0.37516004 0.26151431 0.67800003 4286808455
-0.37497142 0.26228571 0.68000001 4286612099
-0.37697336 0.26460001 0.68600005 4286480513
-0.37785718 0.26614287 0.69000006 4286153599
-0.37708858 0.26652858 0.69100004 4285888886
-0.37577242 0.26652858 0.69100004 4285359981
-0.37608191 0.26768571 0.69400001 4284900452
-0.37476 0.26768571 0.69400001 4284637788
-0.37343812 0.26768571 0.69400001 4284441186
-0.37211621 0.26768571 0.69400001 4284572776
-0.38148001 0.27540001 0.71400005 4284702820
-0.38012004 0.27540001 0.71400005 4284572000
-0.38035145 0.27655715 0.71700001 4284440672
-0.3789857 0.27655715 0.71700001 4283588448
-0.37762001 0.27655715 0.71700001 4282796866
-0.37730384 0.27732858 0.71900004 4281734949
-0.37645715 0.27771428 0.72000003 4280754219
-0.37612763 0.27848575 0.72200006 4280690482
-0.3747524 0.27848575 0.72200006 4280624185
-0.46242955 0.46015719 1.1930001 4280166959
-0.46015719 0.46015719 1.1930001 4280494900
-0.45676002 0.46362856 1.202 4281085496
-0.45447049 0.46362856 1.202 4280755000
-0.45669526 0.46825719 1.2140001 4280687928
-0.45288575 0.46671429 1.21 4280687158
-0.45058095 0.46671429 1.21 4280687156
-0.43596667 0.45861429 1.189 4281609013
-0.4337019 0.45861429 1.189 4281281851
-0.4328886 0.46015719 1.1930001 4280953657
-0.43061623 0.46015719 1.1930001 4280560183
-0.42978001 0.46169999 1.197 4280166449
-0.42750001 0.46169999 1.197 4279837228
-0.4269962 0.46362856 1.202 4279573286
-0.42470667 0.46362856 1.202 4279572001
-0.42241713 0.46362856 1.202 4279637029
-0.42012763 0.46362856 1.202 4279571241
-0.4178381 0.46362856 1.202 4279506220
-0.41554859 0.46362856 1.202 4279179310
-0.41325903 0.46362856 1.202 4278917673
-0.41096953 0.46362856 1.202 4279377189
-0.40868002 0.46362856 1.202 4279836461
-0.40639049 0.46362856 1.202 4280099126
-0.40242001 0.46169999 1.197 4280362297
-0.39880291 0.46015719 1.1930001 4280428348
-0.39786002 0.46169999 1.197 4280560194
-0.39557999 0.46169999 1.197 4280560968
-0.3933 0.46169999 1.197 4280627273
-0.39265335 0.46362856 1.202 4282405450
-0.39036381 0.46362856 1.202 4284243031
-0.38807428 0.46362856 1.202 4284311141
-0.38578478 0.46362856 1.202 4284377702
-0.38349524 0.46362856 1.202 4284510311
-0.37835145 0.46015719 1.1930001 4284707187
-0.37607908 0.46015719 1.1930001 4286217599
-0.36628667 0.45089999 1.169 4287729549
-0.36281431 0.44935718 1.1650001 4287469978
-0.36059526 0.44935718 1.1650001 4287206546
-0.3583762 0.44935718 1.1650001 4287074954
-0.35615715 0.44935718 1.1650001 4287006077
-0.35515335 0.45089999 1.169 4287328367
-0.35292667 0.45089999 1.169 4287664534
-0.35190001 0.45244288 1.1730001 4288852925
-0.34966573 0.45244288 1.1730001 4290031291
-0.34861621 0.45398575 1.177 4289768122
-0.3463743 0.45398575 1.177 4289572280
-0.34413239 0.45398575 1.177 4290031798
-0.34189048 0.45398575 1.177 4290556855
-0.33964857 0.45398575 1.177 4288788409
-0.33970001 0.45707145 1.1850001 4287012509
-0.33858192 0.45861429 1.189 4286809473
-0.33744857 0.46015719 1.1930001 4286676867
-0.33630002 0.46169999 1.197 4286544260
-0.33541524 0.46362856 1.202 4286480013
-0.33312571 0.46362856 1.202 4288001942
-0.33083621 0.46362856 1.202 4289572248
-0.32854667 0.46362856 1.202 4288189338
-0.32734287 0.46517146 1.2060001 4286810769
-0.32504573 0.46517146 1.2060001 4286808456
-0.18325049 0.30047145 0.77900004 4281543461
-0.1813 0.29969999 0.77700001 4281413421
-0.17935716 0.29892856 0.77500004 4281413940
-0.17673334 0.29699999 0.77000004 4281479479
-0.17481142 0.29622859 0.76800001 4281545019
-0.17334858 0.29622859 0.76800001 4281610557
-0.17188571 0.29622859 0.76800001 4281610559
-0.17086667 0.29699999 0.77000004 4281676095
-0.16940001 0.29699999 0.77000004 4281414207
-0.16793333 0.29699999 0.77000004 4281217088
0.018514287 0.49988571 1.296 4279375897
0.020901905 0.49795711 1.291 4280162608
0.023451429 0.49988571 1.296 4281013791
0.02582 0.49795711 1.291 4280161038
0.028279047 0.49795711 1.291 4279373339
0.030738097 0.49795711 1.291 4279896361
0.033197142 0.49795711 1.291 4280426287
0.035656188 0.49795711 1.291 4281546294
0.038115237 0.49795711 1.291 4282665539
0.040448572 0.49641433 1.2870001 4283653712
0.0429 0.49641433 1.2870001 4284636237
0.045351431 0.49641433 1.2870001 4285160010
0.047802858 0.49641433 1.2870001 4285748037
0.050254285 0.49641433 1.2870001 4286673216
0.052500956 0.49448574 1.2820001 4287588934
0.054942857 0.49448574 1.2820001 4287266893
0.057384763 0.49448574 1.2820001 4287004490
0.059826672 0.49448574 1.2820001 4286742087
0.062511429 0.49641433 1.2870001 4286478673
0.064962864 0.49641433 1.2870001 4286346330
0.067623809 0.49795711 1.291 4286281559
0.070082851 0.49795711 1.291 4285626963
0.0725419 0.49795711 1.291 4285033303
0.075000949 0.49795711 1.291 4285095258
0.07722 0.49641433 1.2870001 4285162330
0.079919048 0.49795711 1.291 4285491801
0.082122862 0.49641433 1.2870001 4285819990
0.08457429 0.49641433 1.2870001 4285951827
0.087025717 0.49641433 1.2870001 4286081871
0.089477144 0.49641433 1.2870001 4286146636
0.091928571 0.49641433 1.2870001 4286214219
0.094380006 0.49641433 1.2870001 4286412875
0.096831433 0.49641433 1.2870001 4286677578
0.099282861 0.49641433 1.2870001 4287401033
0.10133905 0.49448574 1.2820001 4288190803
0.10378096 0.49448574 1.2820001 4288849501
0.10663714 0.49641433 1.2870001 4289574496
0.10908858 0.49641433 1.2870001 4290037347
0.11154 0.49641433 1.2870001 4290495085
0.11399143 0.49641433 1.2870001 4290887544
0.11644286 0.49641433 1.2870001 4291328625
0.11926381 0.49795711 1.291 4291345003
0.12172285 0.49795711 1.291 4291407728
0.12418191 0.49795711 1.291 4290028661
0.12664096 0.49795711 1.291 4288718448
0.12910001 0.49795711 1.291 4288653419
0.13206857 0.49988571 1.296 4288643434
0.13453715 0.49988571 1.296 4286274410
0.30733714 0.49988571 1.296 4290552508
0.30980569 0.49988571 1.296 4290500827
0.31227428 0.49988571 1.296 4292671994
0.31474286 0.49988571 1.296 4294901500
0.31721142 0.49988571 1.296 4294901502
0.31968001 0.49988571 1.296 4294901502
0.32214859 0.49988571 1.296 4294901502
0.34683427 0.49988571 1.296 4293119201
0.34930286 0.49988571 1.296 4292862946
0.35041428 0.49795711 1.291 4293124067
0.35287333 0.49795711 1.291 4293390320
0.35533237 0.49795711 1.291 4294114045
0.35779142 0.49795711 1.291 4294901501
0.36025047 0.49795711 1.291 4294901502
0.36158571 0.49641433 1.2870001 4294901502
0.36403716 0.49641433 1.2870001 4294901502
0.36648858 0.49641433 1.2870001 4294901502
0.36894003 0.49641433 1.2870001 4294901502
0.37139145 0.49641433 1.2870001 4294901502
0.37384287 0.49641433 1.2870001 4294901502
0.37746382 0.49795711 1.291 4294901502
0.37992287 0.49795711 1.291 4294901502
0.38238192 0.49795711 1.291 4294901502
0.38484097 0.49795711 1.291 4294901502
0.3888 0.49988571 1.296 4294901502
0.39126858 0.49988571 1.296 4294901502
0.39373714 0.49988571 1.296 4294901502
0.39620569 0.49988571 1.296 4294901502
0.39867428 0.49988571 1.296 4294901502
0.40114287 0.49988571 1.296 4294901502
0.40205428 0.49795711 1.291 4294901502
0.40169334 0.49448574 1.2820001 4294901502
0.40413526 0.49448574 1.2820001 4294901485
0.40499145 0.4925572 1.2770001 4294901469
0.40742382 0.4925572 1.2770001 4294901453
0.40696761 0.48908567 1.268 4294901438
0.40938285 0.48908567 1.268 4294892941
0.49324003 0.48368573 1.2540001 4288716960
0.4956286 0.48368573 1.2540001 4288323511
0.49603143 0.48175716 1.2490001 4289244366
0.49681431 0.4802143 1.245 4290234835
0.49718094 0.47828573 1.24 4290957273
0.49793142 0.47674286 1.2360001 4291678433
-0.38106 0.25466573 0.65700001 4287007373
-0.38038671 0.25505337 0.65800005 4287137171
-0.38028574 0.25582859 0.66000003 4287267984
-0.37960285 0.2562162 0.66100001 4287070862
-0.3789162 0.25660384 0.66200006 4286939278
-0.37765527 0.25660384 0.66200006 4286939790
-0.37866858 0.2581543 0.66600001 4286940043
-0.37966669 0.25970477 0.67000002 4286940040
-0.37952003 0.26048002 0.67200005 4286874504
-0.37824002 0.26048002 0.67200005 4286874504
-0.37808192 0.26125526 0.67400002 4286874503
-0.37735716 0.26164287 0.67500001 4286677894
-0.37607142 0.26164287 0.67500001 4286547082
-0.37645143 0.26280573 0.67800003 4286612366
-0.37737337 0.2643562 0.68200004 4286677384
-0.37607431 0.2643562 0.68200004 4286546050
-0.37752286 0.2662943 0.68700004 4286414978
-0.37785718 0.26745716 0.69000006 4286152578
-0.37708858 0.2678448 0.69100004 4285955701
-0.37685999 0.26861998 0.69300002 4285557096
-0.37608191 0.26900762 0.69400001 4285097054
-0.37476 0.26900762 0.69400001 4284834389
-0.37343812 0.26900762 0.69400001 4284572254
-0.37533337 0.27133337 0.70000005 4284702823
-0.37400001 0.27133337 0.70000005 4284833635
-0.38278192 0.27869812 0.71900004 4284636768
-0.37982097 0.27753526 0.71600002 4284374366
-0.37845713 0.27753526 0.71600002 4283915869
-0.37762001 0.27792287 0.71700001 4283455552
-0.37730384 0.27869812 0.71900004 4281803299
-0.37645715 0.27908573 0.72000003 4280231465
-0.37612763 0.27986097 0.72200006 4280362288
-0.3747524 0.27986097 0.72200006 4280493362
-0.4598 0.46901906 1.21 4280755767
-0.45749527 0.46901906 1.21 4280492598
-0.45669526 0.47056958 1.2140001 4280228662
-0.45288575 0.46901906 1.21 4279966516
-0.45058095 0.46901906 1.21 4280229427
-0.44827619 0.46901906 1.21 4280558131
-0.43970576 0.46242955 1.1930001 4280756532
-0.43743336 0.46242955 1.1930001 4281020220
-0.4337019 0.46087906 1.189 4280757572
-0.4328886 0.46242955 1.1930001 4280561980
-0.43061623 0.46242955 1.1930001 4280232244
-0.42834383 0.46242955 1.1930001 4279904558
-0.42750001 0.46398002 1.197 4279443496
-0.42522001 0.46398002 1.197 4278982443
-0.42293999 0.46398002 1.197 4279244334
-0.42241713 0.46591812 1.202 4279572012
-0.42012763 0.46591812 1.202 4279637290
-0.4161 0.46398002 1.197 4279702830
-0.41554859 0.46591812 1.202 4279506738
-0.41325903 0.46591812 1.202 4279376435
-0.40926 0.46398002 1.197 4279704885
-0.40698001 0.46398002 1.197 4280099639
-0.40469998 0.46398002 1.197 4280362297
-0.40242001 0.46398002 1.197 4280559420
-0.39880291 0.46242955 1.1930001 4280625472
-0.39786002 0.46398002 1.197 4280759625
-0.39557999 0.46398002 1.197 4281150546
-0.3933 0.46398002 1.197 4281545031
-0.39102 0.46398002 1.197 4282866236
-0.38874 0.46398002 1.197 4284179286
-0.38646001 0.46398002 1.197 4284311665
-0.38289621 0.46242955 1.1930001 4284378221
-0.37934762 0.46087906 1.189 4284970089
-0.37708285 0.46087906 1.189 4285560698
-0.36851332 0.45312667 1.169 4286745227
-0.36503336 0.4515762 1.1650001 4287994772
-0.36156857 0.45002571 1.161 4287534493
-0.35935715 0.45002571 1.161 4287075221
-0.3571457 0.45002571 1.161 4286875533
-0.35615715 0.4515762 1.1650001 4286741637
-0.35393813 0.4515762 1.1650001 4287860350
-0.35292667 0.45312667 1.169 4288986012
-0.35190001 0.45467716 1.1730001 4289377211
-0.34966573 0.45467716 1.1730001 4289703097
-0.34743145 0.45467716 1.1730001 4289638071
-0.34519717 0.45467716 1.1730001 4289573302
-0.34413239 0.45622763 1.177 4289770422
-0.34189048 0.45622763 1.177 4290036402
-0.33964857 0.45622763 1.177 4287993519
-0.33740667 0.45622763 1.177 4286013335
-0.33858192 0.46087906 1.189 4286217856
-0.33631712 0.46087906 1.189 4286414976
-0.3351762 0.46242955 1.1930001 4287070080
-0.33541524 0.46591812 1.202 4287659672
-0.33173999 0.46398002 1.197 4288395441
-0.32946 0.46398002 1.197 4289115293
-0.32718 0.46398002 1.197 4287859337
-0.32625714 0.46591812 1.202 4286675592
-0.32396764 0.46591812 1.202 4286742920
-0.17820001 0.29846668 0.77000004 4281413686
-0.17627428 0.2976914 0.76800001 4281347900
-0.17458381 0.29730383 0.76700002 4281413187
-0.17312287 0.29730383 0.76700002 4281544258
-0.17166191 0.29730383 0.76700002 4281479489
-0.17042285 0.2976914 0.76800001 4281479744
-0.16896001 0.2976914 0.76800001 4281348416
-0.16749713 0.2976914 0.76800001 4281218381
0.03064286 0.49886572 1.2870001 4280555282
0.033094287 0.49886572 1.2870001 4280751637
0.035545714 0.49886572 1.2870001 4281341465
0.037997145 0.49886572 1.2870001 4281997091
0.040448572 0.49886572 1.2870001 4282194733
0.0429 0.49886572 1.2870001 4282392638
0.045351431 0.49886572 1.2870001 4282529103
0.047802858 0.49886572 1.2870001 4282665804
0.050254285 0.49886572 1.2870001 4283256906
0.052500956 0.49692765 1.2820001 4283848016
0.054942857 0.49692765 1.2820001 4283586390
0.057384763 0.49692765 1.2820001 4283325003
0.060060002 0.49886572 1.2870001 4283658049
0.062511429 0.49886572 1.2870001 4284056907
0.064962864 0.49886572 1.2870001 4284387670
0.067414291 0.49886572 1.2870001 4284718420
0.069865711 0.49886572 1.2870001 4284850003
0.072317146 0.49886572 1.2870001 4284981583
0.07722 0.49886572 1.2870001 4285440589
0.079671435 0.49886572 1.2870001 4285768271
0.082122862 0.49886572 1.2870001 4286095951
0.08457429 0.49886572 1.2870001 4286214991
0.087025717 0.49886572 1.2870001 4286426949
0.089477144 0.49886572 1.2870001 4286427195
0.091928571 0.49886572 1.2870001 4286427457
0.094380006 0.49886572 1.2870001 4286428743
0.096831433 0.49886572 1.2870001 4286430029
0.099282861 0.49886572 1.2870001 4286429780
0.10133905 0.49692765 1.2820001 4286429803
0.10337619 0.49498954 1.2770001 4286231426
0.10663714 0.49886572 1.2870001 4286033014
0.10908858 0.49886572 1.2870001 4285635179
0.11154 0.49886572 1.2870001 4285237617
0.11399143 0.49886572 1.2870001 4285366648
0.11644286 0.49886572 1.2870001 4285561204
0.35423145 0.49886572 1.2870001 4294442238
0.35668287 0.49886572 1.2870001 4294901502
0.35913429 0.49886572 1.2870001 4294901502
0.36018097 0.49692765 1.2820001 4294901502
0.36262289 0.49692765 1.2820001 4294901502
0.36506477 0.49692765 1.2820001 4294901502
0.36750668 0.49692765 1.2820001 4294901502
0.3699486 0.49692765 1.2820001 4294901502
0.37239048 0.49692765 1.2820001 4294901502
0.37629429 0.49886572 1.2870001 4294901502
0.37874573 0.49886572 1.2870001 4294901502
0.38119715 0.49886572 1.2870001 4294901502
0.40326002 0.49886572 1.2870001 4294901502
0.40413526 0.49692765 1.2820001 4294901502
0.40499145 0.49498954 1.2770001 4294508286
0.40742382 0.49498954 1.2770001 4294115070
0.40696761 0.49150094 1.268 4294508286
0.40938285 0.49150094 1.268 4294901466
0.49324003 0.4860743 1.2540001 4287733404
0.4956286 0.4860743 1.2540001 4287865015
0.49444282 0.4825857 1.245 4288982995
0.49481905 0.48064759 1.24 4290168782
0.49557716 0.47909716 1.2360001 4290628554
0.49632004 0.47754669 1.2320001 4291088341
-0.38047999 0.25552765 0.65600002 4287072396
-0.38038671 0.25630668 0.65800005 4287267984
-0.38028574 0.25708571 0.66000003 4287464078
-0.37960285 0.25747523 0.66100001 4287267212
-0.3789162 0.25786477 0.66200006 4287070603
-0.3793667 0.25903335 0.66500002 4287070602
-0.38037428 0.26059142 0.66900003 4287070854
-0.38023332 0.26137048 0.671 4286940034
-0.37895525 0.26137048 0.671 4286874500
-0.37824002 0.26176003 0.67200005 4286874502
-0.37864286 0.26292858 0.67500001 4286874500
-0.37735716 0.26292858 0.67500001 4286546819
-0.37662858 0.26331809 0.67600006 4286219143
-0.37645143 0.26409715 0.67800003 4286350475
-0.37737337 0.26565525 0.68200004 4286546055
-0.37717715 0.26643428 0.68400002 4286414723
-0.37752286 0.26760286 0.68700004 4286349185
-0.37785718 0.26877144 0.69000006 4286218368
-0.37818003 0.26994002 0.69300002 4286086776
-0.37685999 0.26994002 0.69300002 4285688689
-0.37770763 0.27149808 0.69700003 4285359209
-0.37476 0.27032954 0.69400001 4285031266
-0.3739762 0.27071908 0.69500005 4284768613
-0.37533337 0.27266669 0.70000005 4284898664
-0.37400001 0.27266669 0.70000005 4285029989
-0.38118479 0.27889904 0.71600002 4284702305
-0.37982097 0.27889904 0.71600002 4284374368
-0.37845713 0.27889904 0.71600002 4284243295
-0.37762001 0.27928856 0.71700001 4284177474
-0.37730384 0.28006762 0.71900004 4281937445
-0.37750286 0.28123623 0.72200006 4279707179
-0.37664858 0.28162575 0.72300005 4280034354
-0.37527147 0.28162575 0.72300005 4280427313
-0.37715429 0.28513145 0.73200005 4279770415
-0.37576002 0.28513145 0.73200005 4279704111
-0.4598 0.47132382 1.21 4280427330
-0.45258 0.46625999 1.197 4280294970
-0.45030001 0.46625999 1.197 4279769394
-0.4513886 0.46976572 1.2060001 4279310387
-0.44909143 0.46976572 1.2060001 4279837236
-0.4467943 0.46976572 1.2060001 4280427574
-0.43970576 0.46470195 1.1930001 4280429112
-0.43743336 0.46470195 1.1930001 4280429372
-0.43516099 0.46470195 1.1930001 4280298817
-0.4328886 0.46470195 1.1930001 4280167225
-0.43061623 0.46470195 1.1930001 4279904561
-0.42834383 0.46470195 1.1930001 4279640868
-0.42607147 0.46470195 1.1930001 4279049752
-0.42522001 0.46625999 1.197 4278458146
-0.4215267 0.46470195 1.1930001 4278981677
-0.42066002 0.46625999 1.197 4279506222
-0.41837999 0.46625999 1.197 4279703086
-0.41470957 0.46470195 1.1930001 4279899697
-0.41243717 0.46470195 1.1930001 4279834420
-0.4101648 0.46470195 1.1930001 4279835190
-0.40789241 0.46470195 1.1930001 4280098360
-0.40562004 0.46470195 1.1930001 4280427835
-0.40334764 0.46470195 1.1930001 4280624958
-0.40107527 0.46470195 1.1930001 4280822082
-0.39746571 0.4631438 1.189 4280888134
-0.39520094 0.4631438 1.189 4280953673
-0.39425814 0.46470195 1.1930001 4281674573
-0.39198574 0.46470195 1.1930001 4282467921
-0.38971338 0.46470195 1.1930001 4283327061
-0.38744098 0.46470195 1.1930001 4284179810
-0.38516861 0.46470195 1.1930001 4284312176
-0.38289621 0.46470195 1.1930001 4284444527
-0.37807143 0.46158576 1.1850001 4285430127
-0.37327716 0.45846951 1.177 4286415743
-0.36851332 0.45535332 1.169 4287338639
-0.36503336 0.45379528 1.1650001 4288255377
-0.36156857 0.45223713 1.161 4287599250
-0.35935715 0.45223713 1.161 4287008131
-0.3583762 0.45379528 1.1650001 4286739060
-0.35615715 0.45379528 1.1650001 4286481799
-0.35393813 0.45379528 1.1650001 4288392347
-0.35292667 0.45535332 1.169 4290361514
-0.35070002 0.45535332 1.169 4289901496
-0.34847334 0.45535332 1.169 4289442747
-0.34624669 0.45535332 1.169 4289508285
-0.34519717 0.45691147 1.1730001 4289574332
-0.34296286 0.45691147 1.1730001 4289509308
-0.34072858 0.45691147 1.1730001 4289505705
-0.33849433 0.45691147 1.1730001 4287264407
-0.33740667 0.45846951 1.177 4285101960
-0.33858192 0.4631438 1.189 4285626490
-0.33744857 0.46470195 1.1930001 4286216831
-0.3351762 0.46470195 1.1930001 4287528324
-0.33402002 0.46625999 1.197 4288912277
-0.33173999 0.46625999 1.197 4288788902
-0.32946 0.46625999 1.197 4288716182
-0.32718 0.46625999 1.197 4287595142
-0.3238143 0.46470195 1.1930001 4286546311
-0.32154191 0.46470195 1.1930001 4286742920
-0.17850001 0.29798573 0.76500005 4281478702
-0.17750572 0.29876477 0.76700002 4281347642
-0.17604476 0.29876477 0.76700002 4281282369
-0.17458381 0.29876477 0.76700002 4281347912
-0.17312287 0.29876477 0.76700002 4281479237
-0.17166191 0.29876477 0.76700002 4281414211
-0.17020094 0.29876477 0.76700002 4281348669
-0.16874 0.29876477 0.76700002 4281282872
-0.16727905 0.29876477 0.76700002 4281283909
0.037849523 0.49936953 1.2820001 4281344806
0.040291432 0.49936953 1.2820001 4280754475
0.042733334 0.49936953 1.2820001 4280163633
0.045175239 0.49936953 1.2820001 4279900728
0.047617145 0.49936953 1.2820001 4279638063
0.05005905 0.49936953 1.2820001 4279899943
0.052500956 0.49936953 1.2820001 4280160299
0.054942857 0.49936953 1.2820001 4279896624
0.057384763 0.49936953 1.2820001 4279703083
0.059826672 0.49936953 1.2820001 4280623654
0.091571428 0.49936953 1.2820001 4286605874
0.094013333 0.49936953 1.2820001 4286341421
0.10133905 0.49936953 1.2820001 4284695610
0.10337619 0.49742192 1.2770001 4283577924
0.10622286 0.49936953 1.2820001 4282457152
0.35285524 0.49936953 1.2820001 4294704894
0.35773906 0.49936953 1.2820001 4294901502
0.36018097 0.49936953 1.2820001 4294901502
0.36262289 0.49936953 1.2820001 4294901502
0.36364096 0.49742192 1.2770001 4294901502
0.36607334 0.49742192 1.2770001 4294901502
0.36850575 0.49742192 1.2770001 4294901502
0.37239048 0.49936953 1.2820001 4294901502
0.37483239 0.49936953 1.2820001 4294901502
0.40413526 0.49936953 1.2820001 4294901496
0.40499145 0.49742192 1.2770001 4294108402
0.40742382 0.49742192 1.2770001 4293322992
0.40825146 0.49547434 1.2720001 4294110447
0.40938285 0.49391618 1.268 4294900453
0.41179809 0.49391618 1.268 4294049498
0.47224098 0.48651525 1.2490001 4292400326
0.49280861 0.49041051 1.2590001 4286030732
0.49127337 0.48651525 1.2490001 4286746271
0.4936524 0.48651525 1.2490001 4287472823
0.49444282 0.48495716 1.245 4288787408
0.49481905 0.48300952 1.24 4290103500
0.49557716 0.48145145 1.2360001 4290298568
0.49632004 0.47989336 1.2320001 4290497750
0.4986667 0.47989336 1.2320001 4291941861
0.49898008 0.47794574 1.2270001 4293391340
-0.38047999 0.25677714 0.65600002 4287071884
-0.37980857 0.25716859 0.65700001 4287202445
-0.37913334 0.25756001 0.65800005 4287332491
-0.37960285 0.25873432 0.66100001 4287136138
-0.3789162 0.25912574 0.66200006 4287005576
-0.38164857 0.26186574 0.66900003 4287005063
-0.38094288 0.26225713 0.67000002 4286939265
-0.38023332 0.26264858 0.671 4286874492
-0.37952003 0.26304001 0.67200005 4286809216
-0.37824002 0.26304001 0.67200005 4286808964
-0.37808192 0.26382285 0.67400002 4286874754
-0.37735716 0.26421431 0.67500001 4286677888
-0.37662858 0.26460573 0.67600006 4286481028
-0.37700668 0.26578 0.67900002 4286546057
-0.37737337 0.26695427 0.68200004 4286611335
-0.37717715 0.26773712 0.68400002 4286545797
-0.37862191 0.2696943 0.68900001 4286413953
-0.37840477 0.27047715 0.69100004 4286283646
-0.37818003 0.27125999 0.69300002 4286152572
-0.37794766 0.27204287 0.69500005 4285690747
-0.37662381 0.27204287 0.69500005 4285293685
-0.37530002 0.27204287 0.69500005 4285030767
-0.37559047 0.27321714 0.69800001 4284702828
-0.37533337 0.27400002 0.70000005 4284768362
-0.37613717 0.27556574 0.70400006 4284833894
-0.37852284 0.27830571 0.71100003 4284637027
-0.37876001 0.27948001 0.71400005 4284440162
-0.37740001 0.27948001 0.71400005 4284374881
-0.37762001 0.28065428 0.71700001 4284375364
-0.37730384 0.28143713 0.71900004 4282002983
-0.37750286 0.28261146 0.72200006 4279641901
-0.37664858 0.28300288 0.72300005 4279904052
-0.37682858 0.28417715 0.72600001 4280166448
-0.37648001 0.28496 0.72800004 4279968813
-0.37560856 0.28535146 0.72900003 4279704622
-0.37576002 0.28652573 0.73200005 4279834672
-0.37436572 0.28652573 0.73200005 4280031019
-0.37297145 0.28652573 0.73200005 4279769639
-0.45106766 0.46697432 1.1930001 4280096062
-0.44879526 0.46697432 1.1930001 4279833903
-0.4513886 0.47206289 1.2060001 4279637554
-0.44909143 0.47206289 1.2060001 4280033590
-0.4467943 0.47206289 1.2060001 4280428345
-0.43970576 0.46697432 1.1930001 4280558653
-0.43596667 0.46540859 1.189 4280754749
-0.4337019 0.46540859 1.189 4280362302
-0.43143713 0.46540859 1.189 4280035638
-0.4291724 0.46540859 1.189 4279772207
-0.4269076 0.46540859 1.189 4279508507
-0.42464286 0.46540859 1.189 4279179784
-0.42237809 0.46540859 1.189 4278916890
-0.42011335 0.46540859 1.189 4279113773
-0.41784856 0.46540859 1.189 4279376176
-0.41558382 0.46540859 1.189 4279573299
-0.41331905 0.46540859 1.189 4279704884
-0.41105428 0.46540859 1.189 4279770934
-0.40741432 0.4638429 1.1850001 4279902776
-0.40515715 0.4638429 1.1850001 4280164411
-0.40290001 0.4638429 1.1850001 4280493887
-0.40064287 0.4638429 1.1850001 4280690499
-0.39838573 0.4638429 1.1850001 4280954183
-0.39612859 0.4638429 1.1850001 4281083980
-0.39520094 0.46540859 1.189 4281148746
-0.3929362 0.46540859 1.189 4282270792
-0.39067143 0.46540859 1.189 4283394395
-0.38971338 0.46697432 1.1930001 4283918447
-0.38744098 0.46697432 1.1930001 4284508015
-0.38387716 0.46540859 1.189 4284706159
-0.38161236 0.46540859 1.189 4284904050
-0.37807143 0.4638429 1.1850001 4285891958
-0.37200859 0.45914572 1.1730001 4286943109
-0.36725241 0.45601431 1.1650001 4287270804
-0.36377999 0.45444858 1.161 4287664014
-0.36156857 0.45444858 1.161 4287007624
-0.35935715 0.45444858 1.161 4286416753
-0.3571457 0.45444858 1.161 4287204187
-0.35493428 0.45444858 1.161 4287991690
-0.35272285 0.45444858 1.161 4288916921
-0.35171905 0.45601431 1.1650001 4289836471
-0.34950003 0.45601431 1.1650001 4289638838
-0.34728098 0.45601431 1.1650001 4289441981
-0.34506193 0.45601431 1.1650001 4289639620
-0.34284288 0.45601431 1.1650001 4289905347
-0.34179333 0.45758 1.169 4288785090
-0.33956668 0.45758 1.169 4287730080
-0.33849433 0.45914572 1.1730001 4286740351
-0.33855337 0.46227717 1.1810001 4285757305
-0.33744287 0.4638429 1.1850001 4286019700
-0.33631712 0.46540859 1.189 4286282366
-0.3351762 0.46697432 1.1930001 4287799176
-0.33402002 0.46854001 1.197 4289380497
-0.33173999 0.46854001 1.197 4288389019
-0.32946 0.46854001 1.197 4287462543
-0.32608667 0.46697432 1.1930001 4287070596
-0.3238143 0.46697432 1.1930001 4286742918
-0.32154191 0.46697432 1.1930001 4286743176
-0.1790162 0.29787716 0.76100004 4281085746
-0.17803332 0.29866001 0.76300001 4281414968
-0.17658 0.29866001 0.76300001 4281282110
-0.17558572 0.29944286 0.76500005 4281217093
-0.17412858 0.29944286 0.76500005 4281217101
-0.17267144 0.29944286 0.76500005 4281283913
-0.1712143 0.29944286 0.76500005 4281217605
-0.17020094 0.3002257 0.76700002 4281152059
-0.16874 0.3002257 0.76700002 4281152305
-0.16727905 0.3002257 0.76700002 4281218366
0.10297143 0.49789718 1.2720001 4282517254
0.35877621 0.49985433 1.2770001 4294901502
0.36364096 0.49985433 1.2770001 4294901502
0.36607334 0.49985433 1.2770001 4294311678
0.36850575 0.49985433 1.2770001 4293721854
0.37093809 0.49985433 1.2770001 4294311678
0.3733705 0.49985433 1.2770001 4294901502
0.40255904 0.49985433 1.2770001 4294901490
0.40340573 0.49789718 1.2720001 4293715686
0.4058286 0.49789718 1.2720001 4292599011
0.40825146 0.49789718 1.2720001 4292930017
0.40938285 0.49633142 1.268 4293195503
0.40725145 0.49085146 1.2540001 4293589758
0.41127336 0.49280861 1.2590001 4294049506
0.41367143 0.49280861 1.2590001 4290372039
0.41514385 0.48889431 1.2490001 4287351416
0.41752288 0.48889431 1.2490001 4288008350
0.41507241 0.47519431 1.2140001 4287732027
0.41910386 0.47715145 1.2190001 4285170177
0.42142576 0.47715145 1.2190001 4282674234
0.42374763 0.47715145 1.2190001 4283920756
0.46882764 0.49280861 1.2590001 4293130719
0.47122574 0.49280861 1.2590001 4292136142
0.47174287 0.49085146 1.2540001 4291224276
0.47072858 0.48732856 1.245 4291742683
0.47120002 0.48537144 1.24 4292277740
0.47356188 0.48537144 1.24 4293130750
0.47592381 0.48537144 1.24 4293983949
0.47828573 0.48537144 1.24 4292468124
0.47909716 0.48380575 1.2360001 4291015542
0.48145145 0.48380575 1.2360001 4287999568
0.49280861 0.49280861 1.2590001 4284983673
0.49520671 0.49280861 1.2590001 4286163107
0.49760479 0.49280861 1.2590001 4287277240
0.49603143 0.48889431 1.2490001 4288458189
0.49681431 0.48732856 1.245 4289579721
0.49718094 0.48537144 1.24 4290169286
0.49430576 0.4802829 1.2270001 4290824663
0.49664289 0.4802829 1.2270001 4291943145
0.49898008 0.4802829 1.2270001 4293129194
-0.38106 0.25841999 0.65700001 4287137160
-0.3792305 0.25802666 0.65600002 4287136907
-0.37855715 0.25841999 0.65700001 4287201674
-0.37788001 0.25881335 0.65800005 4287070602
-0.38349524 0.26353335 0.67000002 4287005321
-0.38221905 0.26353335 0.67000002 4286939784
-0.38151142 0.26392668 0.671 4286874245
-0.38023332 0.26392668 0.671 4286808962
-0.37895525 0.26392668 0.671 4286743431
-0.37824002 0.26432002 0.67200005 4286808972
-0.37696004 0.26432002 0.67200005 4286873992
-0.37568003 0.26432002 0.67200005 4286808196
-0.37662858 0.26589334 0.67600006 4286807942
-0.37700668 0.26707333 0.67900002 4286742408
-0.37737337 0.26825336 0.68200004 4286742406
-0.37717715 0.26903999 0.68400002 4286611331
-0.37917146 0.27140003 0.69000006 4286545281
-0.3795 0.27258 0.69300002 4286348927
-0.37872574 0.27297333 0.69400001 4286217851
-0.37794766 0.27336669 0.69500005 4285758328
-0.37662381 0.27336669 0.69500005 4285296501
-0.37530002 0.27336669 0.69500005 4284964722
-0.37505239 0.27415335 0.69700003 4284702828
-0.37533337 0.27533334 0.70000005 4284703078
-0.37934288 0.27926669 0.71000004 4284702821
-0.37958765 0.28044668 0.71300006 4284637283
-0.37876001 0.28084001 0.71400005 4284571236
-0.37740001 0.28084001 0.71400005 4284572261
-0.37709332 0.28162667 0.71600002 4284571977
-0.37730384 0.28280669 0.71900004 4282068525
-0.37750286 0.28398669 0.72200006 4279577905
-0.37664858 0.28438002 0.72300005 4279774262
-0.37682858 0.28556001 0.72600001 4279969585
-0.37648001 0.2863467 0.72800004 4279838253
-0.37560856 0.28674003 0.72900003 4279704109
-0.37576002 0.28792 0.73200005 4280031022
-0.37436572 0.28792 0.73200005 4280424488
-0.44955522 0.46767333 1.189 4279966270
-0.44729048 0.46767333 1.189 4279966516
-0.44989145 0.47278666 1.202 4279967287
-0.44760188 0.47278666 1.202 4280164665
-0.44345999 0.47082001 1.197 4280426810
-0.43823144 0.46767333 1.189 4280754491
-0.43596667 0.46767333 1.189 4281082683
-0.4337019 0.46767333 1.189 4280493115
-0.43143713 0.46767333 1.189 4279968053
-0.4291724 0.46767333 1.189 4279639856
-0.4269076 0.46767333 1.189 4279376421
-0.42464286 0.46767333 1.189 4279374874
-0.42237809 0.46767333 1.189 4279375397
-0.41870001 0.46610004 1.1850001 4279311153
-0.41644287 0.46610004 1.1850001 4279310900
-0.41418573 0.46610004 1.1850001 4279442231
-0.41192859 0.46610004 1.1850001 4279574072
-0.4082886 0.46452671 1.1810001 4279771449
-0.40603909 0.46452671 1.1810001 4279968060
-0.40378955 0.46452671 1.1810001 4280230463
-0.40154004 0.46452671 1.1810001 4280559682
-0.3992905 0.46452671 1.1810001 4280821829
-0.39704099 0.46452671 1.1810001 4281150788
-0.39612859 0.46610004 1.1850001 4281279300
-0.39520094 0.46767333 1.189 4281416781
-0.3929362 0.46767333 1.189 4282867029
-0.39067143 0.46767333 1.189 4284311650
-0.38840666 0.46767333 1.189 4284574318
-0.3861419 0.46767333 1.189 4284836718
-0.38387716 0.46767333 1.189 4285100142
-0.38161236 0.46767333 1.189 4285365117
-0.37807143 0.46610004 1.1850001 4286419340
-0.37200859 0.46138003 1.1730001 4287533456
-0.36725241 0.45823336 1.1650001 4287271316
-0.36377999 0.45666 1.161 4287073935
-0.36032286 0.45508671 1.1570001 4286415754
-0.35811907 0.45508671 1.1570001 4285826692
-0.35591525 0.45508671 1.1570001 4287662463
-0.35371146 0.45508671 1.1570001 4289567643
-0.35150763 0.45508671 1.1570001 4289441464
-0.35051143 0.45666 1.161 4289375928
-0.34829998 0.45666 1.161 4289376184
-0.34608856 0.45666 1.161 4289442497
-0.34387717 0.45666 1.161 4289836491
-0.34284288 0.45823336 1.1650001 4290231481
-0.34062383 0.45823336 1.1650001 4288060839
-0.33840477 0.45823336 1.1650001 4285959058
-0.33734 0.45980665 1.169 4286151037
-0.33740667 0.46295333 1.177 4286412920
-0.33516476 0.46295333 1.177 4286410610
-0.33405429 0.46452671 1.1810001 4286415501
-0.33405238 0.46767333 1.189 4288135847
-0.3329038 0.46924672 1.1930001 4289835420
-0.33063143 0.46924672 1.1930001 4288054929
-0.32835904 0.46924672 1.1930001 4286283147
-0.32608667 0.46924672 1.1930001 4286611846
-0.3238143 0.46924672 1.1930001 4286939783
-0.32154191 0.46924672 1.1930001 4286809223
-0.18022858 0.29893336 0.76000005 4281150257
-0.1790162 0.29932669 0.76100004 4281282866
-0.17756668 0.29932669 0.76100004 4281413682
-0.17611715 0.29932669 0.76100004 4281282355
-0.17512666 0.30011335 0.76300001 4281151294
-0.17367335 0.30011335 0.76300001 4281151817
-0.17267144 0.30090001 0.76500005 4281152070
-0.1712143 0.30090001 0.76500005 4281021251
-0.16975716 0.30090001 0.76500005 4280955457
-0.1683 0.30090001 0.76500005 4281021759
-0.16727905 0.30168667 0.76700002 4281153092
0.40938285 0.49874669 1.268 4291548642
0.40887526 0.49520671 1.2590001 4293191156
0.41127336 0.49520671 1.2590001 4294901483
0.41367143 0.49520671 1.2590001 4294901474
0.41606954 0.49520671 1.2590001 4294901454
0.41680574 0.49324003 1.2540001 4294901435
0.41919431 0.49324003 1.2540001 4294901454
0.41814953 0.48104668 1.223 4294891148
0.42047906 0.48104668 1.223 4288196446
0.42280856 0.48104668 1.223 4281496161
0.42513812 0.48104668 1.223 4282646884
0.44244859 0.49520671 1.2590001 4284110702
0.44484669 0.49520671 1.2590001 4284373613
0.44964287 0.49520671 1.2590001 4283457909
0.45204097 0.49520671 1.2590001 4282849407
0.45588285 0.49678001 1.263 4282353564
0.45828858 0.49678001 1.263 4287538361
0.46069428 0.49678001 1.263 4292728784
0.46163335 0.49520671 1.2590001 4293787366
0.46403146 0.49520671 1.2590001 4294901487
0.46642956 0.49520671 1.2590001 4294835959
0.46882764 0.49520671 1.2590001 4294769120
0.47122574 0.49520671 1.2590001 4292793288
0.47174287 0.49324003 1.2540001 4290824910
0.47072858 0.48969999 1.245 4291085011
0.47120002 0.48773333 1.24 4291351267
0.47203431 0.48616001 1.2360001 4292862708
0.4743886 0.48616001 1.2360001 4294376160
0.47520006 0.48458669 1.2320001 4294573773
0.47909716 0.48616001 1.2360001 4294760617
0.48145145 0.48616001 1.2360001 4289369734
0.49280861 0.49520671 1.2590001 4283999359
0.49520671 0.49520671 1.2590001 4285561720
