# .PCD v0.7 - Point Cloud Data file format
VERSION 0.7
FIELDS x y z rgba
SIZE 4 4 4 4
TYPE F F F U
COUNT 1 1 1 1
WIDTH 1126
HEIGHT 1
VIEWPOINT 0 0 0 1 0 0 0
POINTS 1126
DATA ascii
-0.43591431 0.27588001 1.2540001 4280096322
-0.43525431 0.27698001 1.2590001 4279835459
-0.4328562 0.27698001 1.2590001 4279573826
-0.4304581 0.27698001 1.2590001 4279703617
-0.42806 0.27698001 1.2590001 4279900217
-0.42566192 0.27698001 1.2590001 4279965746
-0.42326385 0.27698001 1.2590001 4280097069
-0.42086574 0.27698001 1.2590001 4279900457
-0.41979715 0.27785999 1.263 4279638312
-0.41739145 0.27785999 1.263 4279638568
-0.41662857 0.27895999 1.268 4279573031
-0.41421333 0.27895999 1.268 4279572775
-0.2258143 0.31614003 1.437 4284306540
-0.22214574 0.31482002 1.4310001 4284044133
-0.21942002 0.31482002 1.4310001 4283846751
-0.21669431 0.31482002 1.4310001 4283911769
-0.21396859 0.31482002 1.4310001 4284042081
-0.21035716 0.31350002 1.4250001 4284370281
-0.20764287 0.31350002 1.4250001 4284632939
-0.20492859 0.31350002 1.4250001 4285487214
-0.20306572 0.31482002 1.4310001 4286342774
-0.20034 0.31482002 1.4310001 4286406271
-0.1976143 0.31482002 1.4310001 4286470005
-0.19488858 0.31482002 1.4310001 4286868843
-0.19216287 0.31482002 1.4310001 4287262603
-0.18943715 0.31482002 1.4310001 4288444588
-0.18749429 0.31614003 1.437 4289626809
-0.18475716 0.31614003 1.437 4290418886
-0.18201999 0.31614003 1.437 4291150025
-0.18464762 0.3256 1.48 4291609036
-0.18256572 0.32692 1.4860001 4291999945
-0.18130763 0.32978001 1.4990001 4291934150
-0.17845239 0.32978001 1.4990001 4291868605
-0.44049522 0.27516192 1.24 4279769653
-0.43989998 0.2762714 1.245 4279769407
-0.43752858 0.2762714 1.245 4279834689
-0.43655527 0.27715907 1.2490001 4279768899
-0.43417624 0.27715907 1.2490001 4279769408
-0.43179715 0.27715907 1.2490001 4279639102
-0.42941812 0.27715907 1.2490001 4279573564
-0.42874861 0.27826858 1.2540001 4279834683
-0.42466003 0.27715907 1.2490001 4280096822
-0.42397144 0.27826858 1.2540001 4280227888
-0.42158288 0.27826858 1.2540001 4280424749
-0.42086574 0.27937812 1.2590001 4280031787
-0.41846764 0.27937812 1.2590001 4279704104
-0.41606954 0.27937812 1.2590001 4279638565
-0.41367143 0.27937812 1.2590001 4279573030
-0.41127336 0.27937812 1.2590001 4279573288
-0.22214574 0.31754574 1.4310001 4284240997
-0.21942002 0.31754574 1.4310001 4284043870
-0.21669431 0.31754574 1.4310001 4284043350
-0.21396859 0.31754574 1.4310001 4284108894
-0.21124288 0.31754574 1.4310001 4284240230
-0.20851716 0.31754574 1.4310001 4284371306
-0.20492859 0.31621429 1.4250001 4285420142
-0.20306572 0.31754574 1.4310001 4286540405
-0.20034 0.31754574 1.4310001 4286538620
-0.1976143 0.31754574 1.4310001 4286604664
-0.19488858 0.31754574 1.4310001 4286408821
-0.19216287 0.31754574 1.4310001 4286279294
-0.18943715 0.31754574 1.4310001 4287722887
-0.18749429 0.31887716 1.437 4289234587
-0.18475716 0.31887716 1.437 4289626543
-0.18201999 0.31887716 1.437 4290030527
-0.18227714 0.32420287 1.4610001 4291084496
-0.18182857 0.32841903 1.48 4292131534
-0.18046096 0.33108193 1.4920001 4292000205
-0.17845239 0.33263525 1.4990001 4291868352
-0.37238094 0.15219048 0.68000001 4282465119
-0.37108573 0.15219048 0.68000001 4282135136
-0.44521904 0.27752382 1.24 4279045170
-0.4414286 0.27662858 1.2360001 4279440182
-0.44049522 0.27752382 1.24 4279901245
-0.43813333 0.27752382 1.24 4280032324
-0.43752858 0.27864286 1.245 4280228932
-0.43515715 0.27864286 1.245 4280032068
-0.43278569 0.27864286 1.245 4279835454
-0.43041429 0.27864286 1.245 4279835449
-0.42941812 0.27953809 1.2490001 4279835447
-0.42874861 0.28065714 1.2540001 4279900982
-0.42466003 0.27953809 1.2490001 4279966770
-0.42228097 0.27953809 1.2490001 4280031791
-0.41990194 0.27953809 1.2490001 4280097070
-0.41752288 0.27953809 1.2490001 4279900461
-0.41846764 0.28177622 1.2590001 4279704872
-0.41606954 0.28177622 1.2590001 4279573539
-0.41498572 0.28267142 1.263 4279442470
-0.41258001 0.28267142 1.263 4279507753
-0.26181903 0.33258098 1.4860001 4285560979
-0.25898859 0.33258098 1.4860001 4285957303
-0.22307715 0.3216143 1.437 4283979110
-0.22034001 0.3216143 1.437 4283913309
-0.21669431 0.32027146 1.4310001 4284043092
-0.21396859 0.32027146 1.4310001 4284174428
-0.21124288 0.32027146 1.4310001 4284371300
-0.20851716 0.32027146 1.4310001 4284633705
-0.20579144 0.32027146 1.4310001 4285485935
-0.20306572 0.32027146 1.4310001 4286344820
-0.20034 0.32027146 1.4310001 4286474617
-0.1976143 0.32027146 1.4310001 4286669948
-0.19488858 0.32027146 1.4310001 4286538111
-0.19216287 0.32027146 1.4310001 4286471793
-0.18943715 0.32027146 1.4310001 4288051043
-0.18749429 0.3216143 1.437 4289694590
-0.18475716 0.3216143 1.437 4289761433
-0.18278 0.32295716 1.4430001 4289828534
-0.18152858 0.32564288 1.455 4290947540
-0.18096858 0.32967141 1.473 4292132052
-0.18046096 0.33392382 1.4920001 4292130772
-0.17761905 0.33392382 1.4920001 4292129732
-0.37238094 0.15348572 0.68000001 4283518813
-0.37108573 0.15348572 0.68000001 4283519326
-0.44613716 0.27898285 1.2360001 4279045943
-0.44378287 0.27898285 1.2360001 4279308858
-0.4414286 0.27898285 1.2360001 4279637309
-0.43907431 0.27898285 1.2360001 4280032323
-0.43813333 0.27988571 1.24 4280293960
-0.43577144 0.27988571 1.24 4280621891
-0.43515715 0.28101429 1.245 4280294207
-0.43278569 0.28101429 1.245 4279966522
-0.43041429 0.28101429 1.245 4280031798
-0.42804286 0.28101429 1.245 4280097587
-0.4256714 0.28101429 1.245 4279967025
-0.4233 0.28101429 1.245 4279901489
-0.42092857 0.28101429 1.245 4279836209
-0.41855717 0.28101429 1.245 4279834416
-0.41752288 0.28191715 1.2490001 4279769391
-0.41846764 0.28417429 1.2590001 4279769643
-0.41606954 0.28417429 1.2590001 4279508008
-0.41498572 0.28507712 1.263 4279311400
-0.41258001 0.28507712 1.263 4279508008
-0.28163239 0.33541143 1.4860001 4284229471
-0.27880192 0.33541143 1.4860001 4282472565
-0.27597144 0.33541143 1.4860001 4284123019
-0.27314097 0.33541143 1.4860001 4285759868
-0.26855999 0.33676574 1.4920001 4284245615
-0.26464954 0.33541143 1.4860001 4284902769
-0.26181903 0.33541143 1.4860001 4285559430
-0.25898859 0.33541143 1.4860001 4285889435
-0.23141429 0.32841429 1.455 4286660449
-0.22770002 0.32706001 1.4490001 4283650917
-0.22400859 0.32570574 1.4430001 4283717226
-0.22034001 0.32435143 1.437 4283848034
-0.21669431 0.32299718 1.4310001 4284043098
-0.21396859 0.32299718 1.4310001 4284240222
-0.21124288 0.32299718 1.4310001 4284568419
-0.20851716 0.32299718 1.4310001 4284896359
-0.20579144 0.32299718 1.4310001 4285486442
-0.20306572 0.32299718 1.4310001 4286144626
-0.20034 0.32299718 1.4310001 4286413177
-0.1976143 0.32299718 1.4310001 4286738291
-0.19488858 0.32299718 1.4310001 4286667372
-0.19216287 0.32299718 1.4310001 4286670971
-0.18943715 0.32299718 1.4310001 4288379275
-0.18749429 0.32435143 1.437 4290156440
-0.18475716 0.32435143 1.437 4289897638
-0.18278 0.32570574 1.4430001 4289699507
-0.18152858 0.32841429 1.455 4290877632
-0.18023144 0.33112288 1.4670001 4292131015
-0.17900953 0.33405715 1.48 4292265678
-0.17761905 0.33676574 1.4920001 4292393413
-0.17559716 0.33834574 1.4990001 4291999163
-0.37497142 0.15478095 0.68000001 4283913052
-0.37367621 0.15478095 0.68000001 4283979355
-0.37238094 0.15478095 0.68000001 4283914075
-0.37108573 0.15478095 0.68000001 4283914332
-0.44938672 0.28042668 1.2320001 4281146427
-0.44704002 0.28042668 1.2320001 4279240765
-0.44469336 0.28042668 1.2320001 4279307584
-0.44378287 0.28133717 1.2360001 4279441474
-0.44000003 0.28042668 1.2320001 4279704133
-0.43907431 0.28133717 1.2360001 4279967049
-0.43813333 0.28224763 1.24 4280229197
-0.43577144 0.28224763 1.24 4280425795
-0.43340954 0.28224763 1.24 4280228922
-0.43104762 0.28224763 1.24 4280032310
-0.42868569 0.28224763 1.24 4279966515
-0.42804286 0.28338569 1.245 4279966512
-0.4256714 0.28338569 1.245 4279769645
-0.4233 0.28338569 1.245 4279638576
-0.42092857 0.28338569 1.245 4279769139
-0.41855717 0.28338569 1.245 4279834162
-0.28163239 0.33824193 1.4860001 4283314254
-0.27880192 0.33824193 1.4860001 4282468191
-0.27597144 0.33824193 1.4860001 4283915889
-0.27424383 0.33960763 1.4920001 4285363570
-0.27140191 0.33960763 1.4920001 4284966259
-0.26855999 0.33960763 1.4920001 4284639091
-0.26571813 0.33960763 1.4920001 4285033075
-0.26181903 0.33824193 1.4860001 4285492345
-0.25898859 0.33824193 1.4860001 4285689472
-0.23141429 0.3311857 1.455 4286532193
-0.22864287 0.3311857 1.455 4283715432
-0.22307715 0.32708859 1.437 4283914095
-0.22034001 0.32708859 1.437 4284175975
-0.21669431 0.32572287 1.4310001 4284175712
-0.21396859 0.32572287 1.4310001 4284241249
-0.21124288 0.32572287 1.4310001 4284503395
-0.20851716 0.32572287 1.4310001 4284765796
-0.20579144 0.32572287 1.4310001 4285224038
-0.20306572 0.32572287 1.4310001 4285747824
-0.20034 0.32572287 1.4310001 4286937978
-0.1976143 0.32572287 1.4310001 4288117354
-0.19488858 0.32572287 1.4310001 4287985242
-0.19216287 0.32572287 1.4310001 4287853190
-0.18943715 0.32572287 1.4310001 4288905651
-0.18749429 0.32708859 1.437 4290033331
-0.18552858 0.32845429 1.4430001 4289962163
-0.18278 0.32845429 1.4430001 4289888944
-0.18152858 0.3311857 1.455 4290480813
-0.17949429 0.33255145 1.4610001 4291016123
-0.17743716 0.33391717 1.4670001 4291610057
-0.17845239 0.34120098 1.4990001 4292264133
-0.37497142 0.15607619 0.68000001 4284373341
-0.37367621 0.15607619 0.68000001 4284439134
-0.37238094 0.15607619 0.68000001 4284373855
-0.37108573 0.15607619 0.68000001 4284373856
-0.45173335 0.28277335 1.2320001 4283980627
-0.44938672 0.28277335 1.2320001 4281807430
-0.44522575 0.28162575 1.2270001 4279638087
-0.44469336 0.28277335 1.2320001 4279635017
-0.44234672 0.28277335 1.2320001 4279637576
-0.44000003 0.28277335 1.2320001 4279769928
-0.43907431 0.28369144 1.2360001 4279967309
-0.43672001 0.28369144 1.2360001 4280098386
-0.43577144 0.28460953 1.24 4280294982
-0.43340954 0.28460953 1.24 4280163898
-0.43104762 0.28460953 1.24 4280098103
-0.42868569 0.28460953 1.24 4279967028
-0.28409621 0.34405619 1.4990001 4282399318
-0.27880192 0.34107238 1.4860001 4282530913
-0.27597144 0.34107238 1.4860001 4283783021
-0.27424383 0.34244955 1.4920001 4285033838
-0.27140191 0.34244955 1.4920001 4285033072
-0.26982 0.34405619 1.4990001 4285032819
-0.26571813 0.34244955 1.4920001 4285229174
-0.26287621 0.34244955 1.4920001 4285426042
-0.26125431 0.34405619 1.4990001 4285557375
-0.22864287 0.33395714 1.455 4283783018
-0.22307715 0.32982573 1.437 4284111218
-0.21942002 0.32844859 1.4310001 4284503914
-0.21669431 0.32844859 1.4310001 4284372067
-0.21396859 0.32844859 1.4310001 4284307039
-0.21124288 0.32844859 1.4310001 4284436571
-0.20851716 0.32844859 1.4310001 4284632932
-0.20579144 0.32844859 1.4310001 4285026158
-0.20306572 0.32844859 1.4310001 4285424503
-0.20034 0.32844859 1.4310001 4287462785
-0.1976143 0.32844859 1.4310001 4289560447
-0.19488858 0.32844859 1.4310001 4289299581
-0.19216287 0.32844859 1.4310001 4289103763
-0.19023144 0.32982573 1.437 4289497768
-0.18749429 0.32982573 1.437 4289893292
-0.18552858 0.33120289 1.4430001 4290026929
-0.18278 0.33120289 1.4430001 4290152364
-0.18152858 0.33395714 1.455 4290018727
-0.17949429 0.3353343 1.4610001 4289965494
-0.17743716 0.33671144 1.4670001 4291019973
-0.17535715 0.33808857 1.473 4292133572
-0.17255142 0.33808857 1.473 4291868611
-0.37607431 0.15783429 0.68200004 4284504927
-0.37477526 0.15783429 0.68200004 4284504929
-0.37347621 0.15783429 0.68200004 4284504931
-0.37217715 0.15783429 0.68200004 4284505188
-0.37087813 0.15783429 0.68200004 4284570726
-0.45408005 0.28512004 1.2320001 4285294182
-0.45173335 0.28512004 1.2320001 4284573019
-0.44938672 0.28512004 1.2320001 4282531665
-0.44522575 0.28396291 1.2270001 4280494162
-0.44288862 0.28396291 1.2270001 4280291667
-0.44234672 0.28512004 1.2320001 4280096079
-0.44000003 0.28512004 1.2320001 4280162891
-0.43587717 0.28396291 1.2270001 4280164177
-0.4353067 0.28512004 1.2320001 4280229463
-0.43296003 0.28512004 1.2320001 4280294984
-0.43061337 0.28512004 1.2320001 4280425530
-0.43104762 0.28697142 1.24 4280556088
-0.42868569 0.28697142 1.24 4280228150
-0.28163239 0.34390289 1.4860001 4282528351
-0.27880192 0.34390289 1.4860001 4283183716
-0.27597144 0.34390289 1.4860001 4284113513
-0.27314097 0.34390289 1.4860001 4284966507
-0.27031049 0.34390289 1.4860001 4285099373
-0.26748002 0.34390289 1.4860001 4285297011
-0.26464954 0.34390289 1.4860001 4285427833
-0.26181903 0.34390289 1.4860001 4285558908
-0.26003429 0.34529147 1.4920001 4285754751
-0.2571924 0.34529147 1.4920001 4285885311
-0.25435048 0.34529147 1.4920001 4285622144
-0.2494857 0.34251431 1.48 4285424506
-0.24666667 0.34251431 1.48 4287006325
-0.24384762 0.34251431 1.48 4288641443
-0.22958572 0.33811715 1.4610001 4284636781
-0.22680287 0.33811715 1.4610001 4284701558
-0.21850002 0.32978573 1.4250001 4284831854
-0.21578573 0.32978573 1.4250001 4284634982
-0.21396859 0.33117431 1.4310001 4284438365
-0.21124288 0.33117431 1.4310001 4284502612
-0.20851716 0.33117431 1.4310001 4284501861
-0.20579144 0.33117431 1.4310001 4285028470
-0.20306572 0.33117431 1.4310001 4285560191
-0.20034 0.33117431 1.4310001 4287069065
-0.1976143 0.33117431 1.4310001 4288577941
-0.19488858 0.33117431 1.4310001 4288840609
-0.19216287 0.33117431 1.4310001 4289168799
-0.18943715 0.33117431 1.4310001 4289365150
-0.18749429 0.33256286 1.437 4289561766
-0.18552858 0.33395144 1.4430001 4289824943
-0.18278 0.33395144 1.4430001 4290153896
-0.18152858 0.33672857 1.455 4290021025
-0.17949429 0.33811715 1.4610001 4289897905
-0.17671144 0.33811715 1.4610001 4291017922
-0.17464288 0.33950573 1.4670001 4292134083
-0.37497142 0.15866667 0.68000001 4284701537
-0.37532476 0.15936667 0.68300003 4284635999
-0.37402382 0.15936667 0.68300003 4284636254
-0.37272286 0.15936667 0.68300003 4284701793
-0.3714219 0.15936667 0.68300003 4284702051
-0.37012097 0.15936667 0.68300003 4284767590
-0.36882001 0.15936667 0.68300003 4284767849
-0.45408005 0.28746668 1.2320001 4285360232
-0.45173335 0.28746668 1.2320001 4285162594
-0.4475629 0.2863 1.2270001 4283255900
-0.44522575 0.2863 1.2270001 4281416279
-0.44288862 0.2863 1.2270001 4281014098
-0.44055146 0.2863 1.2270001 4280621133
-0.4382143 0.2863 1.2270001 4280490312
-0.43587717 0.2863 1.2270001 4280426056
-0.43354005 0.2863 1.2270001 4280359753
-0.43120289 0.2863 1.2270001 4280359232
-0.42886576 0.2863 1.2270001 4280686391
-0.28163239 0.34673333 1.4860001 4282659672
-0.27767619 0.34533334 1.48 4283910756
-0.27485713 0.34533334 1.48 4284444017
-0.2720381 0.34533334 1.48 4284968817
-0.26921904 0.34533334 1.48 4285231474
-0.26748002 0.34673333 1.4860001 4285559672
-0.26358095 0.34533334 1.48 4285626237
-0.26076192 0.34533334 1.48 4285756542
-0.26003429 0.34813336 1.4920001 4285952640
-0.25049713 0.34673333 1.4860001 4286348928
-0.24766669 0.34673333 1.4860001 4286020736
-0.2448362 0.34673333 1.4860001 4285758101
-0.24200574 0.34673333 1.4860001 4285823659
-0.22958572 0.3409 1.4610001 4285556595
-0.22587143 0.33950001 1.455 4285361269
-0.22218001 0.33810002 1.4490001 4285162607
-0.21760285 0.3353 1.437 4284898666
-0.21486571 0.3353 1.437 4284635491
-0.21212856 0.3353 1.437 4284503387
-0.20851716 0.33390003 1.4310001 4284437604
-0.20579144 0.33390003 1.4310001 4285096302
-0.20306572 0.33390003 1.4310001 4285752689
-0.20034 0.33390003 1.4310001 4286671477
-0.1976143 0.33390003 1.4310001 4287657610
-0.19488858 0.33390003 1.4310001 4288447391
-0.19216287 0.33390003 1.4310001 4289234590
-0.19023144 0.3353 1.437 4289234589
-0.18749429 0.3353 1.437 4289299360
-0.18552858 0.33670002 1.4430001 4289691556
-0.18429999 0.33950001 1.455 4290154400
-0.18152858 0.33950001 1.455 4290023323
-0.17949429 0.3409 1.4610001 4289894829
-0.17671144 0.3409 1.4610001 4291016127
-0.17464288 0.34230003 1.4670001 4292195779
-0.37607431 0.16043238 0.68200004 4284767331
-0.37532476 0.16066763 0.68300003 4284702046
-0.37402382 0.16066763 0.68300003 4284702298
-0.37217715 0.16043238 0.68200004 4284768093
-0.37087813 0.16043238 0.68200004 4284767841
-0.37012097 0.16066763 0.68300003 4284767844
-0.36882001 0.16066763 0.68300003 4284833384
-0.45408005 0.28981334 1.2320001 4285491051
-0.44990003 0.28863716 1.2270001 4285293417
-0.4475629 0.28863716 1.2270001 4283782759
-0.44522575 0.28863716 1.2270001 4282338396
-0.44288862 0.28863716 1.2270001 4281210450
-0.44055146 0.28863716 1.2270001 4280095052
-0.4382143 0.28863716 1.2270001 4280162374
-0.4344562 0.28769621 1.223 4280294976
-0.4321267 0.28769621 1.223 4280294459
-0.43120289 0.28863716 1.2270001 4280292663
-0.42886576 0.28863716 1.2270001 4280424500
-0.37086859 0.35097525 1.4920001 4282007364
-0.3680267 0.35097525 1.4920001 4281808940
-0.36518478 0.35097525 1.4920001 4281677110
-0.36234286 0.35097525 1.4920001 4281611840
-0.35950097 0.35097525 1.4920001 4281612095
-0.28695142 0.35262191 1.4990001 4281612876
-0.28049523 0.34815237 1.48 4282923602
-0.27767619 0.34815237 1.48 4284244581
-0.27485713 0.34815237 1.48 4284706681
-0.2720381 0.34815237 1.48 4285164920
-0.26921904 0.34815237 1.48 4285428600
-0.26640001 0.34815237 1.48 4285757053
-0.26233429 0.34650573 1.473 4285822594
-0.26076192 0.34815237 1.48 4285953665
-0.26125431 0.35262191 1.4990001 4286085249
-0.25150859 0.35097525 1.4920001 4286612614
-0.24983335 0.35262191 1.4990001 4286283659
-0.24697812 0.35262191 1.4990001 4286020488
-0.24412286 0.35262191 1.4990001 4286282885
-0.22958572 0.34368289 1.4610001 4285820537
-0.22494002 0.34086001 1.4490001 4285492084
-0.22218001 0.34086001 1.4490001 4285230193
-0.21760285 0.33803713 1.437 4285030767
-0.21486571 0.33803713 1.437 4284832873
-0.21124288 0.33662575 1.4310001 4284701539
-0.20851716 0.33662575 1.4310001 4284570212
-0.20579144 0.33662575 1.4310001 4285028454
-0.20391715 0.33803713 1.437 4285421412
-0.20034 0.33662575 1.4310001 4285881442
-0.1976143 0.33662575 1.4310001 4286341503
-0.19488858 0.33662575 1.4310001 4287330461
-0.19216287 0.33662575 1.4310001 4288382876
-0.18943715 0.33662575 1.4310001 4288513436
-0.18827716 0.3394486 1.4430001 4288709531
-0.18552858 0.3394486 1.4430001 4289365402
-0.18354 0.34086001 1.4490001 4290089624
-0.18152858 0.34227145 1.455 4289957526
-0.17949429 0.34368289 1.4610001 4289826473
-0.17671144 0.34368289 1.4610001 4290882237
-0.17464288 0.34509432 1.4670001 4291933635
-0.17477715 0.35097525 1.4920001 4291999689
-0.17274192 0.35262191 1.4990001 4292067779
-0.37737337 0.16173144 0.68200004 4284964203
-0.37662575 0.16196857 0.68300003 4284898659
-0.37532476 0.16196857 0.68300003 4284833369
-0.37402382 0.16196857 0.68300003 4284833872
-0.37272286 0.16196857 0.68300003 4284833625
-0.3714219 0.16196857 0.68300003 4284833633
-0.37066287 0.16220573 0.68400002 4284833379
-0.36936 0.16220573 0.68400002 4284898918
-0.45223719 0.29097432 1.2270001 4285622141
-0.44990003 0.29097432 1.2270001 4285490037
-0.4475629 0.29097432 1.2270001 4284375150
-0.44377428 0.29002571 1.223 4283258207
-0.44144478 0.29002571 1.223 4281406800
-0.43911526 0.29002571 1.223 4279572041
-0.43678573 0.29002571 1.223 4279834434
-0.4344562 0.29002571 1.223 4280163388
-0.4321267 0.29002571 1.223 4280163895
-0.42979714 0.29002571 1.223 4280227379
-0.42886576 0.29097432 1.2270001 4280228144
-0.37260857 0.35547715 1.4990001 4281809731
-0.36975336 0.35547715 1.4990001 4281677109
-0.36689809 0.35547715 1.4990001 4281545787
-0.36404288 0.35547715 1.4990001 4281612353
-0.36118764 0.35547715 1.4990001 4281677378
-0.28446287 0.35239428 1.4860001 4281809232
-0.28049523 0.35097143 1.48 4283187794
-0.27767619 0.35097143 1.48 4284637029
-0.27485713 0.35097143 1.48 4284969337
-0.27075142 0.34931144 1.473 4285363066
-0.26921904 0.35097143 1.48 4285691259
-0.26640001 0.35097143 1.48 4286019713
-0.26233429 0.34931144 1.473 4286086278
-0.25952858 0.34931144 1.473 4286151301
-0.26125431 0.35547715 1.4990001 4286216324
-0.25268856 0.35547715 1.4990001 4286873997
-0.22958572 0.34646574 1.4610001 4286083964
-0.22494002 0.34362003 1.4490001 4285688697
-0.22218001 0.34362003 1.4490001 4285361268
-0.21760285 0.3407743 1.437 4285162864
-0.21486571 0.3407743 1.437 4285031020
-0.21212856 0.3407743 1.437 4284899176
-0.20851716 0.33935145 1.4310001 4284766823
-0.20665428 0.3407743 1.437 4284963174
-0.20391715 0.3407743 1.437 4285159014
-0.20118 0.3407743 1.437 4285092454
-0.1976143 0.33935145 1.4310001 4285028468
-0.19488858 0.33935145 1.4310001 4286279298
-0.19296858 0.3407743 1.437 4287590018
-0.19023144 0.3407743 1.437 4287852162
-0.18827716 0.34219715 1.4430001 4288116363
-0.18552858 0.34219715 1.4430001 4289104789
-0.18354 0.34362003 1.4490001 4290089368
-0.18152858 0.34504285 1.455 4289957531
-0.17875715 0.34504285 1.455 4289826987
-0.17671144 0.34646574 1.4610001 4290748603
-0.17464288 0.34788859 1.4670001 4291671232
-0.17407429 0.35239428 1.4860001 4291934917
-0.17193525 0.35381716 1.4920001 4292196290
-0.37792668 0.16326953 0.68300003 4284768108
-0.37717715 0.16350858 0.68400002 4284768099
-0.37532476 0.16326953 0.68300003 4284768085
-0.37402382 0.16326953 0.68300003 4284833351
-0.37272286 0.16326953 0.68300003 4284898900
-0.3714219 0.16326953 0.68300003 4284833378
-0.37012097 0.16326953 0.68300003 4284768099
-0.36882001 0.16326953 0.68300003 4284833636
-0.45223719 0.29331145 1.2270001 4285689487
-0.44843334 0.29235527 1.223 4285624450
-0.44610384 0.29235527 1.223 4284439926
-0.44377428 0.29235527 1.223 4283260770
-0.44144478 0.29235527 1.223 4281406286
-0.43911526 0.29235527 1.223 4279569222
-0.43678573 0.29235527 1.223 4279900479
-0.4344562 0.29235527 1.223 4280293945
-0.4321267 0.29235527 1.223 4280294451
-0.42979714 0.29235527 1.223 4280358960
-0.37260857 0.3583324 1.4990001 4281743171
-0.36975336 0.3583324 1.4990001 4281611327
-0.36689809 0.3583324 1.4990001 4281480001
-0.32539812 0.35665908 1.4920001 4285429870
-0.32406953 0.3583324 1.4990001 4285496692
-0.32121432 0.3583324 1.4990001 4285496439
-0.31550384 0.3583324 1.4990001 4286543245
-0.28845334 0.35665908 1.4920001 4281677654
-0.28446287 0.35522479 1.4860001 4281940052
-0.28049523 0.35379049 1.48 4283320914
-0.27767619 0.35379049 1.48 4284767334
-0.27355716 0.35211715 1.473 4285036154
-0.27075142 0.35211715 1.473 4285363580
-0.26576287 0.34924859 1.4610001 4285691519
-0.26406002 0.35068288 1.4670001 4286020229
-0.26019713 0.34924859 1.4610001 4286151307
-0.25741428 0.34924859 1.4610001 4286282633
-0.25567716 0.35068288 1.4670001 4286281864
-0.25554383 0.3583324 1.4990001 4286480275
-0.25150859 0.35665908 1.4920001 4286676628
-0.24697812 0.3583324 1.4990001 4286152603
-0.24412286 0.3583324 1.4990001 4286415009
-0.24126762 0.3583324 1.4990001 4286678416
-0.21851143 0.34494573 1.4430001 4285295730
-0.21486571 0.34351143 1.437 4285099120
-0.21212856 0.34351143 1.437 4284899950
-0.20851716 0.34207717 1.4310001 4284767082
-0.20665428 0.34351143 1.437 4284831847
-0.20391715 0.34351143 1.437 4284896872
-0.20118 0.34351143 1.437 4284961386
-0.19844286 0.34351143 1.437 4285026153
-0.19570573 0.34351143 1.437 4286411368
-0.19296858 0.34351143 1.437 4287849832
-0.19023144 0.34351143 1.437 4287915880
-0.18827716 0.34494573 1.4430001 4288047484
-0.18552858 0.34494573 1.4430001 4288906129
-0.18354 0.34638003 1.4490001 4289826968
-0.18152858 0.34781429 1.455 4289761696
-0.17875715 0.34781429 1.455 4289762220
-0.17671144 0.34924859 1.4610001 4290484665
-0.17392859 0.34924859 1.4610001 4291212221
-0.17255142 0.35211715 1.473 4291606209
-0.1712438 0.35522479 1.4860001 4291999936
-0.16909336 0.35665908 1.4920001 4291802560
0.047500003 0.34064287 1.4250001 4285279103
0.050214287 0.34064287 1.4250001 4288845054
0.052928574 0.34064287 1.4250001 4292411134
0.055642858 0.34064287 1.4250001 4293656318
0.47825241 0.3583324 1.4990001 4288257439
0.49823904 0.3583324 1.4990001 4290494400
-0.37978286 0.16481143 0.68400002 4285555319
-0.37848002 0.16481143 0.68400002 4284637295
-0.37717715 0.16481143 0.68400002 4284702824
-0.37532476 0.16457048 0.68300003 4284767839
-0.37402382 0.16457048 0.68300003 4284898390
-0.37217715 0.16432953 0.68200004 4285029983
-0.37087813 0.16432953 0.68200004 4284899945
-0.37012097 0.16457048 0.68300003 4284768103
-0.36882001 0.16457048 0.68300003 4284833893
-0.44696671 0.29372096 1.2190001 4285755263
-0.44464481 0.29372096 1.2190001 4284504698
-0.44232288 0.29372096 1.2190001 4283325024
-0.44000098 0.29372096 1.2190001 4281406022
-0.43911526 0.29468477 1.223 4279569728
-0.43678573 0.29468477 1.223 4279966779
-0.42983812 0.29155239 1.21 4280426038
-0.42753333 0.29155239 1.21 4280426545
-0.37260857 0.36118764 1.4990001 4281677124
-0.36975336 0.36118764 1.4990001 4281545537
-0.33123812 0.35660952 1.48 4284442468
-0.32841903 0.35660952 1.48 4284969325
-0.3256 0.35660952 1.48 4285365366
-0.32408953 0.35805523 1.4860001 4285758587
-0.32125905 0.35805523 1.4860001 4285561983
-0.31842858 0.35805523 1.4860001 4285429881
-0.31687242 0.35950097 1.4920001 4286804339
-0.3140305 0.35950097 1.4920001 4288251274
-0.31264856 0.36118764 1.4990001 4288125600
-0.30979335 0.36118764 1.4990001 4287994270
-0.30693808 0.36118764 1.4990001 4287994268
-0.29266191 0.36118764 1.4990001 4281677899
-0.28845334 0.35950097 1.4920001 4281874250
-0.28446287 0.35805523 1.4860001 4282071882
-0.28049523 0.35660952 1.48 4283454026
-0.27636287 0.35492286 1.473 4284897637
-0.27355716 0.35492286 1.473 4285168768
-0.26744285 0.35058573 1.455 4285430399
-0.26467142 0.35058573 1.455 4285692029
-0.26298001 0.35203144 1.4610001 4286020226
-0.26019713 0.35203144 1.4610001 4286216070
-0.25741428 0.35203144 1.4610001 4286412679
-0.25463143 0.35203144 1.4610001 4286347399
-0.25184858 0.35203144 1.4610001 4286348169
-0.25332764 0.35805523 1.4860001 4286414474
-0.25049713 0.35805523 1.4860001 4286480781
-0.24983335 0.36118764 1.4990001 4286279823
-0.24697812 0.36118764 1.4990001 4286086036
-0.24412286 0.36118764 1.4990001 4286152857
-0.23917525 0.35805523 1.4860001 4286217359
-0.23634477 0.35805523 1.4860001 4286216581
-0.23351428 0.35805523 1.4860001 4286282114
-0.21851143 0.34769428 1.4430001 4285427570
-0.21486571 0.34624857 1.437 4285163887
-0.21212856 0.34624857 1.437 4284966252
-0.20851716 0.34480289 1.4310001 4284833127
-0.20751715 0.34769428 1.4430001 4284700770
-0.20476858 0.34769428 1.4430001 4284634978
-0.20118 0.34624857 1.437 4284830306
-0.19844286 0.34624857 1.437 4285026414
-0.19570573 0.34624857 1.437 4286609274
-0.19296858 0.34624857 1.437 4288182135
-0.19023144 0.34624857 1.437 4288051060
-0.18827716 0.34769428 1.4430001 4287986048
-0.18552858 0.34769428 1.4430001 4288773260
-0.18354 0.34914002 1.4490001 4289562775
-0.18152858 0.35058573 1.455 4289631395
-0.17875715 0.35058573 1.455 4289761960
-0.17671144 0.35203144 1.4610001 4290286253
-0.17392859 0.35203144 1.4610001 4290817464
-0.17184858 0.35347718 1.4670001 4291343811
-0.17055239 0.35660952 1.48 4291868100
-0.16841334 0.35805523 1.4860001 4291737286
0.044597141 0.34191144 1.419 4292982399
0.047500003 0.34335718 1.4250001 4292270782
0.050214287 0.34335718 1.4250001 4293590782
0.052928574 0.34335718 1.4250001 4294901502
0.055642858 0.34335718 1.4250001 4294901502
0.058111429 0.34191144 1.419 4294901502
0.060814284 0.34191144 1.419 4294901502
0.063517146 0.34191144 1.419 4294901502
0.066500001 0.34335718 1.4250001 4294901502
0.068922862 0.34191144 1.419 4294901502
0.071322866 0.34046572 1.4130001 4294901502
0.48396286 0.36118764 1.4990001 4287404716
0.4868181 0.36118764 1.4990001 4288784834
0.48967338 0.36118764 1.4990001 4290228164
0.49538383 0.36118764 1.4990001 4290099137
0.49823904 0.36118764 1.4990001 4290099388
-0.37978286 0.16611429 0.68400002 4285752186
-0.37792668 0.16587144 0.68300003 4284768627
-0.37717715 0.16611429 0.68400002 4284702829
-0.37587428 0.16611429 0.68400002 4284702057
-0.37402382 0.16587144 0.68300003 4284833382
-0.37272286 0.16587144 0.68300003 4284964715
-0.3714219 0.16587144 0.68300003 4284899440
-0.37066287 0.16611429 0.68400002 4284768363
-0.36936 0.16611429 0.68400002 4284899431
-0.36805716 0.16611429 0.68400002 4285030756
-0.44597143 0.29385716 1.21 4285821306
-0.44513336 0.29482859 1.2140001 4285755260
-0.442821 0.29482859 1.2140001 4284111487
-0.43760574 0.29288575 1.2060001 4282537566
-0.43675241 0.29385716 1.21 4281274686
-0.43444762 0.29385716 1.21 4280094779
-0.43214285 0.29385716 1.21 4280229176
-0.42983812 0.29385716 1.21 4280362291
-0.42612001 0.29288575 1.2060001 4280229935
-0.42382288 0.29288575 1.2060001 4280164657
-0.37086859 0.36234286 1.4920001 4281413188
-0.36975336 0.36404288 1.4990001 4281019972
-0.33541143 0.36088574 1.4860001 4284044649
-0.33258098 0.36088574 1.4860001 4284837994
-0.32841903 0.35942855 1.48 4285626999
-0.3256 0.35942855 1.48 4285759876
-0.32278097 0.35942855 1.48 4285892231
-0.31996191 0.35942855 1.48 4285888651
-0.31714284 0.35942855 1.48 4285887868
-0.3155981 0.36088574 1.4860001 4287268973
-0.3140305 0.36234286 1.4920001 4288653191
-0.31118858 0.36234286 1.4920001 4288453793
-0.30979335 0.36404288 1.4990001 4288190881
-0.30693808 0.36404288 1.4990001 4287930017
-0.30408287 0.36404288 1.4990001 4287669911
-0.29266191 0.36404288 1.4990001 4282270280
-0.28845334 0.36234286 1.4920001 4282335294
-0.28446287 0.36088574 1.4860001 4282400320
-0.27916858 0.3577286 1.473 4283255362
-0.27636287 0.3577286 1.473 4284175972
-0.27244288 0.35627145 1.4670001 4284904839
-0.26854575 0.35481429 1.4610001 4285628033
-0.26467142 0.35335717 1.455 4285758588
-0.26189998 0.35335717 1.455 4285889151
-0.2591286 0.35335717 1.455 4286019970
-0.25635716 0.35335717 1.455 4286216324
-0.25358573 0.35335717 1.455 4286216327
-0.25184858 0.35481429 1.4610001 4286217604
-0.24906573 0.35481429 1.4610001 4286414722
-0.2494857 0.35942855 1.48 4286612613
-0.24412286 0.36404288 1.4990001 4285955474
-0.23917525 0.36088574 1.4860001 4285954702
-0.23729905 0.36234286 1.4920001 4285888906
-0.23445717 0.36234286 1.4920001 4285888645
-0.21212856 0.3489857 1.437 4284900715
-0.20939143 0.3489857 1.437 4284702820
-0.20751715 0.35044289 1.4430001 4284503902
-0.20476858 0.35044289 1.4430001 4284242012
-0.20118 0.3489857 1.437 4284568923
-0.19844286 0.3489857 1.437 4284830324
-0.19570573 0.3489857 1.437 4286541965
-0.19296858 0.3489857 1.437 4288314759
-0.19023144 0.3489857 1.437 4288314497
-0.18827716 0.35044289 1.4430001 4288314500
-0.18552858 0.35044289 1.4430001 4288773768
-0.18429999 0.35335717 1.455 4289233303
-0.18152858 0.35335717 1.455 4289632166
-0.17949429 0.35481429 1.4610001 4290089380
-0.17671144 0.35481429 1.4610001 4290286242
-0.17392859 0.35481429 1.4610001 4290488499
-0.17184858 0.35627145 1.4670001 4291081669
-0.17055239 0.35942855 1.48 4291737032
-0.16841334 0.36088574 1.4860001 4291671500
-0.16625144 0.36234286 1.4920001 4291606725
-0.1641762 0.36404288 1.4990001 4291540415
0.041894287 0.3446143 1.419 4294311678
0.044597141 0.3446143 1.419 4293918462
0.0473 0.3446143 1.419 4293590782
0.050002858 0.3446143 1.419 4294246142
0.052705713 0.3446143 1.419 4294901502
0.055408571 0.3446143 1.419 4294901502
0.058111429 0.3446143 1.419 4294901502
0.060814284 0.3446143 1.419 4294901502
0.063517146 0.3446143 1.419 4294901502
0.06622 0.3446143 1.419 4294901502
0.068922862 0.3446143 1.419 4294901502
0.071322866 0.34315717 1.4130001 4294901502
0.074014291 0.34315717 1.4130001 4294901502
0.076705724 0.34315717 1.4130001 4294901502
0.079397149 0.34315717 1.4130001 4294901502
0.082088582 0.34315717 1.4130001 4294901502
0.08478 0.34315717 1.4130001 4294901502
0.48396286 0.36404288 1.4990001 4287270041
0.4868181 0.36404288 1.4990001 4288256432
0.48967338 0.36404288 1.4990001 4289244347
0.49252859 0.36404288 1.4990001 4289574343
0.49538383 0.36404288 1.4990001 4289968064
0.49823904 0.36404288 1.4990001 4290099641
-0.37510002 0.15934001 0.65100002 4288058520
-0.37386 0.15934001 0.65100002 4287334033
-0.37262002 0.15934001 0.65100002 4286610821
-0.37922764 0.16717239 0.68300003 4286014585
-0.37737337 0.16692764 0.68200004 4284899699
-0.37717715 0.16741715 0.68400002 4284768364
-0.37587428 0.16741715 0.68400002 4284637289
-0.37402382 0.16717239 0.68300003 4284768358
-0.37272286 0.16717239 0.68300003 4284964968
-0.37196571 0.16741715 0.68400002 4284899691
-0.37066287 0.16741715 0.68400002 4284833637
-0.36936 0.16741715 0.68400002 4284964447
-0.36805716 0.16741715 0.68400002 4285161567
-0.44989145 0.29420382 1.202 4286214008
-0.44760188 0.29420382 1.202 4286083702
-0.44531238 0.29420382 1.202 4286017915
-0.44302288 0.29420382 1.202 4285885312
-0.44220003 0.29518288 1.2060001 4285754233
-0.4399029 0.29518288 1.2060001 4283718514
-0.43760574 0.29518288 1.2060001 4281750357
-0.43530861 0.29518288 1.2060001 4281208888
-0.43301147 0.29518288 1.2060001 4280684599
-0.43214285 0.29616189 1.21 4280491575
-0.42983812 0.29616189 1.21 4280295218
-0.42612001 0.29518288 1.2060001 4280099118
-0.42382288 0.29518288 1.2060001 4279902254
-0.37086859 0.36518478 1.4920001 4281216064
-0.33541143 0.36371619 1.4860001 4284177776
-0.33258098 0.36371619 1.4860001 4285233784
-0.32686573 0.36053428 1.473 4286349182
-0.32405999 0.36053428 1.473 4286220420
-0.32125428 0.36053428 1.473 4286087555
-0.31996191 0.36224762 1.48 4286215298
-0.31564286 0.36053428 1.473 4286350215
-0.31432381 0.36224762 1.48 4287733901
-0.31276762 0.36371619 1.4860001 4289109912
-0.31118858 0.36518478 1.4920001 4288782243
-0.30834666 0.36518478 1.4920001 4288455076
-0.3055048 0.36518478 1.4920001 4287865764
-0.30408287 0.36689809 1.4990001 4287271305
-0.30122763 0.36689809 1.4990001 4284766319
-0.29266191 0.36689809 1.4990001 4282925134
-0.28845334 0.36518478 1.4920001 4282861893
-0.28446287 0.36371619 1.4860001 4282793538
-0.27803144 0.35906574 1.4670001 4283119936
-0.27411145 0.35759717 1.4610001 4283453538
-0.2713286 0.35759717 1.4610001 4284641156
-0.26744285 0.35612857 1.455 4285888641
-0.26467142 0.35612857 1.455 4285824894
-0.26189998 0.35612857 1.455 4285757823
-0.2591286 0.35612857 1.455 4285889665
-0.25635716 0.35612857 1.455 4286085251
-0.25358573 0.35612857 1.455 4286085509
-0.25081429 0.35612857 1.455 4286086786
-0.24906573 0.35759717 1.4610001 4286414975
-0.24628288 0.35759717 1.4610001 4286806663
-0.24412286 0.36689809 1.4990001 4285825660
-0.24014096 0.36518478 1.4920001 4285690744
-0.23729905 0.36518478 1.4920001 4285621621
-0.23445717 0.36518478 1.4920001 4285556081
-0.21212856 0.35172287 1.437 4284835428
-0.21026573 0.35319144 1.4430001 4284636515
-0.20751715 0.35319144 1.4430001 4284241505
-0.20476858 0.35319144 1.4430001 4283914079
-0.20202002 0.35319144 1.4430001 4284307549
-0.19844286 0.35172287 1.437 4284699238
-0.19570573 0.35172287 1.437 4286540400
-0.19296858 0.35172287 1.437 4288444539
-0.19023144 0.35172287 1.437 4288579719
-0.18827716 0.35319144 1.4430001 4288707975
-0.18552858 0.35319144 1.4430001 4288775304
-0.18354 0.35466003 1.4490001 4288906389
-0.18152858 0.35612857 1.455 4289698723
-0.17875715 0.35612857 1.455 4290483872
-0.17671144 0.35759717 1.4610001 4290286238
-0.17392859 0.35759717 1.4610001 4290158769
-0.17184858 0.35906574 1.4670001 4290885316
-0.16974571 0.36053428 1.473 4291605958
-0.16841334 0.36371619 1.4860001 4291605960
-0.16625144 0.36518478 1.4920001 4291605955
-0.1641762 0.36689809 1.4990001 4291474879
0.041894287 0.34731716 1.419 4294901501
0.044597141 0.34731716 1.419 4294901502
0.0473 0.34731716 1.419 4294901502
0.050002858 0.34731716 1.419 4294901502
0.052705713 0.34731716 1.419 4294901502
0.055408571 0.34731716 1.419 4294901502
0.058111429 0.34731716 1.419 4294901502
0.060814284 0.34731716 1.419 4294901502
0.063517146 0.34731716 1.419 4294901502
0.06622 0.34731716 1.419 4294901502
0.068922862 0.34731716 1.419 4294901502
0.071322866 0.34584859 1.4130001 4294901502
0.074014291 0.34584859 1.4130001 4294901502
0.076705724 0.34584859 1.4130001 4294901502
0.079397149 0.34584859 1.4130001 4294901502
0.082437143 0.34731716 1.419 4294901502
0.084420003 0.34438002 1.4070001 4294901502
0.087099999 0.34438002 1.4070001 4294901502
0.089780003 0.34438002 1.4070001 4294901502
0.092460006 0.34438002 1.4070001 4294901502
0.095140003 0.34438002 1.4070001 4294901502
0.098237149 0.34584859 1.4130001 4294901502
0.10092857 0.34584859 1.4130001 4294901499
0.10362001 0.34584859 1.4130001 4294240249
0.10946572 0.34731716 1.419 4294175992
0.11438572 0.34584859 1.4130001 4294835966
0.48396286 0.36689809 1.4990001 4287203225
0.4868181 0.36689809 1.4990001 4287728291
0.48967338 0.36689809 1.4990001 4288258732
0.49252859 0.36689809 1.4990001 4289050037
0.49538383 0.36689809 1.4990001 4289901751
0.49823904 0.36689809 1.4990001 4290098106
-0.37510002 0.16058001 0.65100002 4287929241
-0.37386 0.16058001 0.65100002 4287334030
-0.37262002 0.16058001 0.65100002 4286741886
-0.37922764 0.16847333 0.68300003 4285949561
-0.37737337 0.16822667 0.68200004 4285161842
-0.37662575 0.16847333 0.68300003 4285030764
-0.37587428 0.16872001 0.68400002 4284834409
-0.37402382 0.16847333 0.68300003 4284964710
-0.37272286 0.16847333 0.68300003 4285096038
-0.37196571 0.16872001 0.68400002 4284964711
-0.37066287 0.16872001 0.68400002 4284833375
-0.36936 0.16872001 0.68400002 4284833368
-0.36805716 0.16872001 0.68400002 4284899163
-0.4480429 0.29230002 1.1850001 4286017914
-0.44578573 0.29230002 1.1850001 4286017669
-0.44652289 0.29427335 1.1930001 4286083201
-0.44574001 0.29526001 1.197 4285952637
-0.44345999 0.29526001 1.197 4285820802
-0.44118002 0.29526001 1.197 4285688199
-0.43889999 0.29526001 1.197 4285556854
-0.43662003 0.29526001 1.197 4283453542
-0.4328886 0.29427335 1.1930001 4281356364
-0.43061623 0.29427335 1.1930001 4281079346
-0.43301147 0.29748002 1.2060001 4280815668
-0.43214285 0.29846668 1.21 4280556598
-0.42983812 0.29846668 1.21 4280360497
-0.33824193 0.36654669 1.4860001 4284440171
-0.33541143 0.36654669 1.4860001 4284900728
-0.33123812 0.36506668 1.48 4285629062
-0.32686573 0.36334002 1.473 4286350725
-0.32274002 0.36186004 1.4670001 4286021764
-0.32125428 0.36334002 1.473 4285758590
-0.31844857 0.36334002 1.473 4286613369
-0.31564286 0.36334002 1.473 4287533715
-0.31283715 0.36334002 1.473 4288126637
-0.31276762 0.36654669 1.4860001 4288717481
-0.30993715 0.36654669 1.4860001 4288716454
-0.30834666 0.3680267 1.4920001 4288717991
-0.3055048 0.3680267 1.4920001 4287206568
-0.30266288 0.3680267 1.4920001 4285693308
-0.30122763 0.36975336 1.4990001 4284109904
-0.29551718 0.36975336 1.4990001 4282794333
-0.29266191 0.36975336 1.4990001 4283055957
-0.28845334 0.3680267 1.4920001 4282859341
-0.28446287 0.36654669 1.4860001 4282662725
-0.2768943 0.36038002 1.4610001 4282923070
-0.27411145 0.36038002 1.4610001 4283189855
-0.27021429 0.35890001 1.455 4284444033
-0.26744285 0.35890001 1.455 4285690752
-0.26467142 0.35890001 1.455 4285625984
-0.26189998 0.35890001 1.455 4285561216
-0.2591286 0.35890001 1.455 4285691777
-0.25635716 0.35890001 1.455 4285822338
-0.25358573 0.35890001 1.455 4285823107
-0.25081429 0.35890001 1.455 4285890687
-0.24906573 0.36038002 1.4610001 4285889660
-0.24126762 0.36975336 1.4990001 4282401123
-0.23841238 0.36975336 1.4990001 4282599008
-0.23445717 0.3680267 1.4920001 4282862430
-0.21026573 0.35594001 1.4430001 4283325025
-0.20838001 0.35742003 1.4490001 4282796645
-0.20476858 0.35594001 1.4430001 4282334050
-0.20202002 0.35594001 1.4430001 4283718239
-0.19844286 0.35446 1.437 4285092697
-0.19570573 0.35446 1.437 4286078547
-0.19296858 0.35446 1.437 4287067248
-0.19023144 0.35446 1.437 4287330701
-0.18827716 0.35594001 1.4430001 4287659658
-0.18552858 0.35594001 1.4430001 4288054152
-0.18354 0.35742003 1.4490001 4288514196
-0.18152858 0.35890001 1.455 4289631648
-0.17875715 0.35890001 1.455 4290747037
-0.17671144 0.36038002 1.4610001 4290351771
-0.17392859 0.36038002 1.4610001 4289960367
-0.17184858 0.36186004 1.4670001 4290753475
-0.16974571 0.36334002 1.473 4291605188
-0.16773333 0.36506668 1.48 4291736005
-0.16625144 0.3680267 1.4920001 4291867074
-0.1641762 0.36975336 1.4990001 4291605951
0.039191429 0.35001999 1.419 4294770173
0.041894287 0.35001999 1.419 4294638845
0.044597141 0.35001999 1.419 4294770430
0.0473 0.35001999 1.419 4294901502
0.050002858 0.35001999 1.419 4294901502
0.052705713 0.35001999 1.419 4294901502
0.055408571 0.35001999 1.419 4294901502
0.058111429 0.35001999 1.419 4294901502
0.060814284 0.35001999 1.419 4294901502
0.063517146 0.35001999 1.419 4294901502
0.06622 0.35001999 1.419 4294901502
0.068922862 0.35001999 1.419 4294901502
0.071322866 0.34854004 1.4130001 4294901502
0.074014291 0.34854004 1.4130001 4294901502
0.076380007 0.34706002 1.4070001 4294901502
0.079060003 0.34706002 1.4070001 4294901502
0.081739999 0.34706002 1.4070001 4294901502
0.084420003 0.34706002 1.4070001 4294901502
0.087099999 0.34706002 1.4070001 4294901502
0.089780003 0.34706002 1.4070001 4294901502
0.092460006 0.34706002 1.4070001 4294901502
0.095545717 0.34854004 1.4130001 4294901502
0.098237149 0.34854004 1.4130001 4294770430
0.10092857 0.34854004 1.4130001 4294704889
0.10362001 0.34854004 1.4130001 4294307316
0.10631143 0.34854004 1.4130001 4293913843
0.10900287 0.34854004 1.4130001 4294371827
0.11169429 0.34854004 1.4130001 4294835960
0.11390001 0.34706002 1.4070001 4294770430
0.11658 0.34706002 1.4070001 4294768638
0.11832762 0.34434667 1.396 4294835454
0.48396286 0.36975336 1.4990001 4287071128
0.4868181 0.36975336 1.4990001 4287136407
0.48967338 0.36975336 1.4990001 4287273117
0.49252859 0.36975336 1.4990001 4288522659
0.49538383 0.36975336 1.4990001 4289769903
0.49823904 0.36975336 1.4990001 4289967036
0.49875429 0.3680267 1.4920001 4290167486
-0.37691811 0.16206856 0.65200001 4288059035
-0.37567618 0.16206856 0.65200001 4287862675
-0.37443429 0.16206856 0.65200001 4287399819
-0.37376478 0.16231716 0.65300006 4286940034
-0.37252098 0.16231716 0.65300006 4286413434
-0.37241429 0.16281429 0.65500003 4285889660
-0.37116668 0.16281429 0.65500003 4286283391
-0.36991906 0.16281429 0.65500003 4286741628
-0.37867239 0.16952573 0.68200004 4285884791
-0.37737337 0.16952573 0.68200004 4285489778
-0.37607431 0.16952573 0.68200004 4285293165
-0.37532476 0.16977428 0.68300003 4285096041
-0.37457144 0.17002286 0.68400002 4285161317
-0.37326857 0.17002286 0.68400002 4285226601
-0.37196571 0.17002286 0.68400002 4285029741
-0.37066287 0.17002286 0.68400002 4284833382
-0.36936 0.17002286 0.68400002 4284703582
-0.45255718 0.29455715 1.1850001 4285951850
-0.45030004 0.29455715 1.1850001 4286018163
-0.4480429 0.29455715 1.1850001 4286083706
-0.44729048 0.29555145 1.189 4286018177
-0.44652289 0.29654571 1.1930001 4286018174
-0.44574001 0.29753998 1.197 4285821563
-0.44345999 0.29753998 1.197 4285624446
-0.44118002 0.29753998 1.197 4285490305
-0.43889999 0.29753998 1.197 4285359212
-0.43516099 0.29654571 1.1930001 4283123031
-0.4328886 0.29654571 1.1930001 4280959561
-0.43061623 0.29654571 1.1930001 4280950075
-0.34244955 0.37086859 1.4920001 4284440431
-0.33824193 0.36937714 1.4860001 4285031030
-0.33405715 0.36788571 1.48 4285625724
-0.32967141 0.3661457 1.473 4285959043
-0.32553431 0.3646543 1.4670001 4286351235
-0.32274002 0.3646543 1.4670001 4285889156
-0.31994572 0.3646543 1.4670001 4285496202
-0.31715146 0.3646543 1.4670001 4287075472
-0.31435719 0.3646543 1.4670001 4288714908
-0.31156287 0.3646543 1.4670001 4288519592
-0.31150478 0.36788571 1.48 4288322985
-0.30993715 0.36937714 1.4860001 4288650923
-0.30834666 0.37086859 1.4920001 4288979102
-0.30693808 0.37260857 1.4990001 4286547601
-0.30408287 0.37260857 1.4990001 4284115827
-0.30122763 0.37260857 1.4990001 4283519061
-0.29837239 0.37260857 1.4990001 4282928473
-0.29551718 0.37260857 1.4990001 4283058782
-0.29266191 0.37260857 1.4990001 4283189079
-0.28845334 0.37086859 1.4920001 4282860879
-0.28197429 0.3661457 1.473 4282596934
-0.27803144 0.3646543 1.4670001 4282726460
-0.27411145 0.36316288 1.4610001 4282926941
-0.2713286 0.36316288 1.4610001 4284181630
-0.26744285 0.36167142 1.455 4285493635
-0.26467142 0.36167142 1.455 4285428360
-0.26189998 0.36167142 1.455 4285428867
-0.2591286 0.36167142 1.455 4285494910
-0.25635716 0.36167142 1.455 4285560190
-0.25358573 0.36167142 1.455 4285626238
-0.25081429 0.36167142 1.455 4285691262
-0.21114002 0.36018002 1.4490001 4282010442
-0.20838001 0.36018002 1.4490001 4281403962
-0.20562002 0.36018002 1.4490001 4280824910
-0.20202002 0.35868859 1.4430001 4283194722
-0.19927144 0.35868859 1.4430001 4285552225
-0.19652286 0.35868859 1.4430001 4285616736
-0.19296858 0.35719714 1.437 4285685102
-0.19102572 0.35868859 1.4430001 4286146941
-0.18827716 0.35868859 1.4430001 4286606720
-0.18552858 0.35868859 1.4430001 4287328899
-0.18354 0.36018002 1.4490001 4288118418
-0.18152858 0.36167142 1.455 4289564834
-0.17875715 0.36167142 1.455 4291006882
-0.17671144 0.36316288 1.4610001 4290417314
-0.17392859 0.36316288 1.4610001 4289827244
-0.17184858 0.3646543 1.4670001 4290687159
-0.1690543 0.3646543 1.4670001 4291604924
-0.16773333 0.36788571 1.48 4291867329
-0.16625144 0.37086859 1.4920001 4292194496
-0.1641762 0.37260857 1.4990001 4291802559
0.039191429 0.35272285 1.419 4294630653
0.041894287 0.35272285 1.419 4294376957
0.044597141 0.35272285 1.419 4294639358
0.0471 0.35123146 1.4130001 4294901502
0.049791433 0.35123146 1.4130001 4294901502
0.052705713 0.35272285 1.419 4294901502
0.055408571 0.35272285 1.419 4294901502
0.057865717 0.35123146 1.4130001 4294901502
0.060557149 0.35123146 1.4130001 4294901502
0.063248575 0.35123146 1.4130001 4294901502
0.065940008 0.35123146 1.4130001 4294901502
0.068631433 0.35123146 1.4130001 4294901502
0.071020007 0.34974003 1.4070001 4294901502
0.073700003 0.34974003 1.4070001 4294901502
0.076108575 0.34849715 1.4020001 4294901502
0.079060003 0.34974003 1.4070001 4294901502
0.081739999 0.34974003 1.4070001 4294901502
0.084420003 0.34974003 1.4070001 4294901502
0.087099999 0.34974003 1.4070001 4294901502
0.089780003 0.34974003 1.4070001 4294901502
0.092460006 0.34974003 1.4070001 4294901502
0.095140003 0.34974003 1.4070001 4294901500
0.098237149 0.35123146 1.4130001 4294702842
0.10092857 0.35123146 1.4130001 4294505719
0.10362001 0.35123146 1.4130001 4294374388
0.10586 0.34974003 1.4070001 4294307317
0.10854 0.34974003 1.4070001 4294567927
0.11122 0.34974003 1.4070001 4294901498
0.11390001 0.34974003 1.4070001 4294770430
0.11616572 0.34849715 1.4020001 4294704381
0.11832762 0.34700572 1.396 4294769405
0.4868181 0.37260857 1.4990001 4286610041
0.48967338 0.37260857 1.4990001 4286286992
0.49252859 0.37260857 1.4990001 4287995304
0.49538383 0.37260857 1.4990001 4289702830
0.49591237 0.37086859 1.4920001 4289835957
0.49875429 0.37086859 1.4920001 4290032573
0.49957907 0.36937714 1.4860001 4290098117
-0.37691811 0.16331047 0.65200001 4287991954
-0.37625241 0.16356096 0.65300006 4287861645
-0.37443429 0.16331047 0.65200001 4287401608
-0.3731924 0.16331047 0.65200001 4287007111
-0.37252098 0.16356096 0.65300006 4286544262
-0.37241429 0.16406192 0.65500003 4286151557
-0.37116668 0.16406192 0.65500003 4286348676
-0.36991906 0.16406192 0.65500003 4286545280
-0.36867145 0.16406192 0.65500003 4286545021
-0.37867239 0.17082477 0.68200004 4285886838
-0.37737337 0.17082477 0.68200004 4285555826
-0.37607431 0.17082477 0.68200004 4285292654
-0.37532476 0.17107525 0.68300003 4285029737
-0.37457144 0.17132571 0.68400002 4285029732
-0.37326857 0.17132571 0.68400002 4285095532
-0.37196571 0.17132571 0.68400002 4284964468
-0.37066287 0.17132571 0.68400002 4284833644
-0.36936 0.17132571 0.68400002 4284899173
-0.45255718 0.29681432 1.1850001 4286215023
-0.45030004 0.29681432 1.1850001 4286149238
-0.4480429 0.29681432 1.1850001 4286149241
-0.44729048 0.29781619 1.189 4286083709
-0.44502571 0.29781619 1.189 4285952379
-0.44425052 0.29881811 1.1930001 4285624697
-0.44197813 0.29881811 1.1930001 4285297274
-0.43970576 0.29881811 1.1930001 4285030780
-0.43743336 0.29881811 1.1930001 4284834146
-0.43516099 0.29881811 1.1930001 4282529608
-0.4328886 0.29881811 1.1930001 4280235334
-0.43061623 0.29881811 1.1930001 4280425284
-0.34976667 0.37546384 1.4990001 4283981666
-0.34529147 0.37371048 1.4920001 4284440434
-0.34107238 0.37220764 1.4860001 4284965497
-0.33824193 0.37220764 1.4860001 4285427841
-0.33112288 0.3674486 1.4670001 4285957760
-0.32832858 0.3674486 1.4670001 4286154624
-0.32420287 0.36594573 1.4610001 4286351746
-0.32142001 0.36594573 1.4610001 4286413444
-0.31863716 0.36594573 1.4610001 4286479254
-0.31585431 0.36594573 1.4610001 4287667368
