# .PCD v0.7 - Point Cloud Data file format
VERSION 0.7
FIELDS x y z rgba
SIZE 4 4 4 4
TYPE F F F U
COUNT 1 1 1 1
WIDTH 1103
HEIGHT 1
VIEWPOINT 0 0 0 1 0 0 0
POINTS 1103
DATA ascii
0.0087000001 0.18154 0.60900003 4281017947
0.0098923808 0.18213618 0.611 4281544789
0.01105619 0.18213618 0.611 4282136389
0.01222 0.18213618 0.611 4282531382
0.013405715 0.18243429 0.61200005 4282991677
0.014571429 0.18243429 0.61200005 4283321156
0.015737144 0.18243429 0.61200005 4283649096
0.016902858 0.18243429 0.61200005 4283715149
0.018068573 0.18243429 0.61200005 4283847755
0.019234287 0.18243429 0.61200005 4284242506
0.020400003 0.18243429 0.61200005 4284635722
0.021565715 0.18243429 0.61200005 4285028939
0.022768572 0.1827324 0.61300004 4285491266
0.023936192 0.1827324 0.61300004 4285822777
0.025185714 0.18332858 0.61500001 4286217279
0.026357144 0.18332858 0.61500001 4286677573
0.027483812 0.18303049 0.61400002 4287204431
0.028653333 0.18303049 0.61400002 4287600474
0.029822858 0.18303049 0.61400002 4288059225
0.031042857 0.18332858 0.61500001 4288387161
0.032214288 0.18332858 0.61500001 4288716381
0.033385713 0.18332858 0.61500001 4289111136
0.034557141 0.18332858 0.61500001 4289503573
0.03578667 0.18362668 0.61600006 4289306443
0.037020002 0.18392478 0.61700004 4289107540
0.038195241 0.18392478 0.61700004 4288712285
0.039370481 0.18392478 0.61700004 4288318815
0.040545717 0.18392478 0.61700004 4287860066
0.041788574 0.18422286 0.61800003 4287400038
0.042965718 0.18422286 0.61800003 4287005802
0.044142857 0.18422286 0.61800003 4286672729
0.04532 0.18422286 0.61800003 4285487688
0.046497144 0.18422286 0.61800003 4284364355
0.047751427 0.18452096 0.61900002 4282913598
0.049009521 0.18481904 0.62 4281537587
0.050352383 0.18541524 0.62200004 4280751399
0.051620003 0.18571334 0.62300003 4280029490
0.052806668 0.18571334 0.62300003 4280094014
0.053993333 0.18571334 0.62300003 4280224828
0.055268571 0.18601142 0.62400001 4279962682
0.056457143 0.18601142 0.62400001 4279700261
0.057645712 0.18601142 0.62400001 4279044881
0.058928572 0.18630952 0.625 4278388233
0.060119048 0.18630952 0.625 4278651137
0.061309524 0.18630952 0.625 4278912769
0.062600002 0.18660763 0.62600005 4278584833
0.063894287 0.18690571 0.62700003 4278256415
0.06508857 0.18690571 0.62700003 4278845757
0.066282853 0.18690571 0.62700003 4279435554
0.067477144 0.18690571 0.62700003 4281401607
0.068780951 0.18720382 0.62800002 4283446829
0.069977149 0.18720382 0.62800002 4286082132
0.071173333 0.18720382 0.62800002 4288715099
0.072484761 0.18750191 0.62900001 4290430562
0.07368286 0.18750191 0.62900001 4292203634
0.07488095 0.18750191 0.62900001 4292797059
0.076441906 0.1883962 0.63200003 4293443722
0.077645719 0.1883962 0.63200003 4293326225
0.078974292 0.18869428 0.63300002 4293187995
0.080306664 0.18899238 0.634 4290821540
0.081514291 0.18899238 0.634 4288510083
0.082852393 0.18929049 0.63500005 4285477729
0.084061913 0.18929049 0.63500005 4282456649
0.085271433 0.18929049 0.63500005 4280353073
0.086617149 0.18958858 0.63600004 4278255921
0.087828577 0.18958858 0.63600004 4278255921
0.089320004 0.19018476 0.63800001 4278322463
0.090960957 0.19107905 0.64100003 4279634190
0.092181914 0.19107905 0.64100003 4280947209
0.093548574 0.19137713 0.64200002 4280949765
0.095066674 0.19197336 0.64400005 4280950544
0.096442863 0.19227144 0.64500004 4280754714
0.097974285 0.19286762 0.64700001 4280624151
0.099206664 0.19286762 0.64700001 4280690452
0.10043905 0.19286762 0.64700001 4280820493
0.10182857 0.19316572 0.648 4280295431
0.10338096 0.19376191 0.65000004 4279839509
0.10461906 0.19376191 0.65000004 4280824355
0.10618286 0.1943581 0.65200001 4281809701
0.10742477 0.1943581 0.65200001 4282729511
0.10883334 0.19465621 0.65300006 4283642394
0.11007715 0.19465621 0.65300006 4282396174
0.11200286 0.19584857 0.65700001 4281212949
0.11325429 0.19584857 0.65700001 4281606172
0.11537715 0.19733907 0.66200006 4281997593
0.11751906 0.19882953 0.66700006 4280687639
0.11914571 0.19942571 0.66900003 4279373619
0.12042 0.19942571 0.66900003 4282537551
0.18478571 0.17796287 0.597 4278652934
0.18592285 0.17796287 0.597 4278651907
0.18706 0.17796287 0.597 4278586113
0.18819714 0.17796287 0.597 4278585345
0.18933427 0.17796287 0.597 4278453506
0.19015238 0.17766476 0.59600002 4278387713
0.19128762 0.17766476 0.59600002 4278387457
0.19210002 0.17736667 0.59500003 4278453505
0.19323334 0.17736667 0.59500003 4278387969
0.19404002 0.17706858 0.59400004 4278322689
0.19517143 0.17706858 0.59400004 4278323201
0.19564191 0.17647238 0.59200001 4278387970
0.19643715 0.17617428 0.59100002 4278322435
0.19722858 0.1758762 0.59000003 4278256642
0.19801621 0.1755781 0.58900005 4278257409
0.1991381 0.1755781 0.58900005 4278322433
0.19992 0.17528 0.588 4278322945
0.20104 0.17528 0.588 4278322945
0.20181619 0.17498191 0.58700001 4278322945
0.20258857 0.17468382 0.58600003 4278322689
0.20335715 0.17438573 0.58500004 4278453761
0.20447144 0.17438573 0.58500004 4278584065
0.2052343 0.17408764 0.58400005 4278584065
0.20599332 0.17378953 0.583 4278649601
0.20674857 0.17349143 0.58200002 4278519041
0.20714287 0.17289524 0.58000004 4278387713
0.20788859 0.17259715 0.57900006 4278518274
0.20863047 0.17229904 0.57800001 4278649347
0.20936857 0.17200096 0.57700002 4278452996
0.21010287 0.17170286 0.57600003 4278256387
0.21120001 0.17170286 0.57600003 4278321922
0.21156 0.17110667 0.574 4278387458
0.21265332 0.17110667 0.574 4278322178
0.21374667 0.17110667 0.574 4278321921
0.21483999 0.17110667 0.574 4278256385
0.21706191 0.17200096 0.57700002 4278256385
0.21891716 0.17259715 0.57900006 4278256129
0.22002003 0.17259715 0.57900006 4278321665
0.22112288 0.17259715 0.57900006 4278321921
0.22145809 0.17200096 0.57700002 4278321921
0.22217144 0.17170286 0.57600003 4278256385
0.22249332 0.17110667 0.574 4278256387
0.22319715 0.17080857 0.57300001 4278256388
0.22389714 0.17051049 0.57200003 4278256642
0.22498667 0.17051049 0.57200003 4278256641
0.22370477 0.16872193 0.56600004 4278256641
0.22478287 0.16872193 0.56600004 4278257153
0.2254619 0.1684238 0.565 4278322433
0.22613715 0.1681257 0.56400001 4278322178
0.22680859 0.16782762 0.56300002 4278321921
0.22747621 0.16752952 0.56200004 4278321921
0.22854668 0.16752952 0.56200004 4278321921
0.22839142 0.16663525 0.55900002 4278321409
0.22863525 0.16603906 0.55700004 4278321921
0.22928382 0.16574097 0.55600005 4278256385
0.22992857 0.16544285 0.55500001 4278256385
0.23098572 0.16544285 0.55500001 4278257153
0.23204286 0.16544285 0.55500001 4278322689
0.23268001 0.16514477 0.55400002 4278322177
0.23331335 0.16484667 0.55300003 4278321921
0.23394287 0.16454859 0.55200005 4278321921
0.23456857 0.16425048 0.551 4278321921
0.2356181 0.16425048 0.551 4278256641
0.23666762 0.16425048 0.551 4278256641
0.23728572 0.1639524 0.55000001 4278256641
0.2379 0.16365428 0.54900002 4278322179
0.23851049 0.1633562 0.54800004 4278387718
0.2395543 0.1633562 0.54800004 4278453251
0.24015906 0.1630581 0.54700005 4278387969
0.24031906 0.16246191 0.54500002 4278322177
0.24135715 0.16246191 0.54500002 4278322177
0.2419505 0.16216381 0.54400003 4278387457
0.24254002 0.16186573 0.54300004 4278322177
0.24312574 0.16156763 0.54200006 4278322177
0.24415812 0.16156763 0.54200006 4278322177
0.2447381 0.16126953 0.54100001 4278387713
0.24576858 0.16126953 0.54100001 4278518785
0.24679905 0.16126953 0.54100001 4278649857
0.24737145 0.16097143 0.54000002 4278453761
0.2484 0.16097143 0.54000002 4278257153
0.24896668 0.16067335 0.53900003 4278322945
0.24952953 0.16037525 0.53800005 4278454017
0.25008854 0.16007714 0.537 4278322433
0.25064379 0.15977906 0.53600001 4278256642
0.25166479 0.15977906 0.53600001 4278256387
0.25268573 0.15977906 0.53600001 4278256898
0.25323334 0.15948096 0.53500003 4278257921
0.25377718 0.15918286 0.53400004 4278257921
0.2547943 0.15918286 0.53400004 4278257922
0.25533241 0.15888476 0.53300005 4278256641
0.25634766 0.15888476 0.53300005 4278256385
0.25687999 0.15858667 0.53200001 4278321921
0.25789332 0.15858667 0.53200001 4278256641
0.25890666 0.15858667 0.53200001 4278256641
0.25943145 0.15828857 0.53100002 4278256641
0.2599524 0.15799049 0.53000003 4278256641
0.26046953 0.15769239 0.52900004 4278387714
0.26147717 0.15769239 0.52900004 4278518529
0.26198858 0.15739428 0.528 4278387457
0.2624962 0.15709619 0.52700001 4278322433
0.264 0.15739428 0.528 4278256641
0.26450381 0.15709619 0.52700001 4278256641
0.26550764 0.15709619 0.52700001 4278322177
0.26651144 0.15709619 0.52700001 4278453249
0.26700762 0.15679809 0.52600002 4278322177
0.26750001 0.15650001 0.52500004 4278256385
0.26798859 0.15620191 0.52400005 4278256385
0.2689867 0.15620191 0.52400005 4278256385
0.26998478 0.15620191 0.52400005 4278387457
0.27046573 0.15590382 0.523 4278584065
0.2714619 0.15590382 0.523 4278452993
0.27245808 0.15590382 0.523 4278321921
0.27345431 0.15590382 0.523 4278256385
0.27445048 0.15590382 0.523 4278256385
0.27492002 0.15560572 0.52200001 4278256385
0.27538574 0.15530764 0.52100003 4278321921
0.27584764 0.15500954 0.52000004 4278256385
0.27683812 0.15500954 0.52000004 4278256129
0.2778286 0.15500954 0.52000004 4278321665
0.27881905 0.15500954 0.52000004 4278387201
0.27927145 0.15471144 0.51900005 4278386945
0.28026003 0.15471144 0.51900005 4278452737
-0.37776858 0.22410001 0.74700004 4287978843
-0.37684953 0.22440001 0.74800003 4288045659
-0.3764286 0.22500001 0.75000006 4288045660
-0.37350002 0.22410001 0.74700004 4288111195
-0.37207717 0.22410001 0.74700004 4288110938
-0.37065428 0.22410001 0.74700004 4288109659
-0.3697257 0.22440001 0.74800003 4288175452
-0.36928573 0.22500001 0.75000006 4288239957
-0.36687618 0.22440001 0.74800003 4288174670
-0.36545143 0.22440001 0.74800003 4288107855
-0.36256671 0.22350001 0.74500006 4288107857
-0.36211717 0.22410001 0.74700004 4288173390
-0.35876286 0.2229 0.74300003 4288041803
-0.36071432 0.22500001 0.75000006 4287976018
-0.35545334 0.22260001 0.74200004 4287975769
-0.35404003 0.22260001 0.74200004 4287975769
-0.35262668 0.22260001 0.74200004 4287910745
-0.35641998 0.22590001 0.75300002 4287777879
-0.3559286 0.2265 0.75500005 4287711574
-0.35355142 0.22590001 0.75300002 4287711058
-0.35071433 0.22500001 0.75000006 4287580238
-0.34835428 0.22440001 0.74800003 4287514936
-0.34692952 0.22440001 0.74800003 4287382562
-0.3464286 0.22500001 0.75000006 4287316019
-0.34408003 0.22440001 0.74800003 4287381828
-0.34265527 0.22440001 0.74800003 4287513419
-0.3407743 0.22410001 0.74700004 4287577427
-0.33980572 0.22440001 0.74800003 4287707726
-0.33838096 0.22440001 0.74800003 4287516233
-0.3369562 0.22440001 0.74800003 4287264556
-0.33553144 0.22440001 0.74800003 4288373263
-0.33410668 0.22440001 0.74800003 4289496147
-0.33268192 0.22440001 0.74800003 4290293912
-0.33214289 0.22500001 0.75000006 4291088294
-0.33159623 0.2256 0.75200003 4291349941
-0.33016384 0.2256 0.75200003 4291611823
-0.32785717 0.22500001 0.75000006 4290623913
-0.32642859 0.22500001 0.75000006 4289640873
-0.32630002 0.22590001 0.75300002 4287672745
-0.3257286 0.2265 0.75500005 4285704853
-0.32429051 0.2265 0.75500005 4284702594
-0.32328004 0.22680001 0.75600004 4283700549
-0.32354289 0.228 0.76000005 4282321672
-0.32209525 0.228 0.76000005 4281008663
-0.32106954 0.22830001 0.76100004 4281543206
-0.32045999 0.2289 0.76300001 4282072876
-0.32109714 0.2304 0.76800001 4282267955
-0.32129905 0.2316 0.77200001 4282463035
-0.32024288 0.23190002 0.77300006 4282463043
-0.31959525 0.23250002 0.77500004 4282528573
-0.31893998 0.2331 0.77700001 4282664760
-0.31827715 0.23370001 0.77900004 4282867001
-0.31597999 0.2331 0.77700001 4284178747
-0.3145 0.2331 0.77700001 4285490766
-0.29622859 0.2304 0.76800001 4294901502
-0.29476571 0.2304 0.76800001 4294901502
-0.29330286 0.2304 0.76800001 4294901502
-0.29146001 0.23010001 0.76700002 4294901502
-0.29037714 0.2304 0.76800001 4294901502
-0.28891429 0.2304 0.76800001 4294901502
-0.28820002 0.23100002 0.77000004 4294901502
-0.28785047 0.23190002 0.77300006 4294901502
-0.28711906 0.23250002 0.77500004 4294901502
-0.28564286 0.23250002 0.77500004 4294901502
-0.28343335 0.23190002 0.77300006 4294901502
-0.28196096 0.23190002 0.77300006 4294901502
-0.26998097 0.228 0.76000005 4294901502
-0.26853335 0.228 0.76000005 4294901502
-0.26708573 0.228 0.76000005 4294901502
-0.26598763 0.22830001 0.76100004 4294901502
-0.26662382 0.23010001 0.76700002 4294901502
-0.26447144 0.22950001 0.76500005 4294835966
-0.26370189 0.23010001 0.76700002 4294835966
-0.26258287 0.2304 0.76800001 4294704894
-0.26111999 0.2304 0.76800001 4294572539
-0.26033333 0.23100002 0.77000004 4294572280
-0.2581943 0.2304 0.76800001 4294572278
-0.25673142 0.2304 0.76800001 4292930036
-0.25493619 0.23010001 0.76700002 4291221212
-0.25347525 0.23010001 0.76700002 4289575365
-0.24324858 0.23010001 0.76700002 4288522681
-0.24178761 0.23010001 0.76700002 4288719541
-0.24032667 0.23010001 0.76700002 4288981944
-0.23762001 0.2289 0.76300001 4289048508
-0.23616667 0.2289 0.76300001 4289180848
-0.23409811 0.22830001 0.76100004 4287669412
-0.23326001 0.2289 0.76300001 4286216304
-0.23180667 0.2289 0.76300001 4284500284
-0.23302764 0.23910002 0.79700005 4282993999
-0.23150954 0.23910002 0.79700005 4282928462
-0.22999144 0.23910002 0.79700005 4282730317
-0.2279 0.2385 0.79500002 4282532939
-0.22638571 0.2385 0.79500002 4282665289
-0.22543715 0.23910002 0.79700005 4282797135
-0.22335716 0.2385 0.79500002 4282599766
-0.22184286 0.2385 0.79500002 4282335307
-0.22032857 0.2385 0.79500002 4282139457
-0.21936476 0.23910002 0.79700005 4281944116
-0.21784668 0.23910002 0.79700005 4281417767
-0.21632859 0.23910002 0.79700005 4280891687
-0.21427143 0.2385 0.79500002 4280496423
-0.21275714 0.2385 0.79500002 4280101141
-0.21124287 0.2385 0.79500002 4280560644
-0.20972858 0.2385 0.79500002 4281021207
-0.20664287 0.2367 0.78900003 4281350699
-0.20513999 0.2367 0.78900003 4281613363
-0.20337906 0.23640001 0.78800005 4281875771
-0.2021343 0.2367 0.78900003 4282136380
-0.20063144 0.2367 0.78900003 4282005822
-0.19912858 0.2367 0.78900003 4281875257
-0.19737525 0.23640001 0.78800005 4281678389
-0.19711715 0.2379 0.79300004 4281546543
-0.19511333 0.23730001 0.79100001 4281217065
-0.19311716 0.2367 0.78900003 4280821025
-0.19137144 0.23640001 0.78800005 4280293658
-0.18987049 0.23640001 0.78800005 4279833105
-0.1450638 0.20130001 0.671 4279573510
-0.14335714 0.20070001 0.66900003 4279507717
-0.14144571 0.1998 0.66600001 4279637252
-0.13996668 0.19950001 0.66500002 4279768840
-0.13828287 0.19890001 0.66300005 4279636749
-0.13681334 0.19860001 0.66200006 4279504647
-0.13534762 0.1983 0.66100001 4279438593
-0.13348001 0.19740002 0.65800005 4279307013
-0.1316238 0.1965 0.65500003 4279177481
-0.12997811 0.19590002 0.65300006 4279047182
-0.12853715 0.1956 0.65200001 4279506707
-0.12710001 0.1953 0.65100002 4279966222
-0.12528001 0.1944 0.648 4279638025
-0.12385428 0.19410001 0.64700001 4279375366
-0.12243238 0.1938 0.64600003 4279179012
-0.1210143 0.19350001 0.64500004 4278982658
-0.11904286 0.19230001 0.64100003 4278783489
-0.1176381 0.19200002 0.64000005 4278586881
-0.11641905 0.19200002 0.64000005 4278651137
-0.11502001 0.19170001 0.63900006 4278715393
-0.11362476 0.19140001 0.63800001 4279108353
-0.11205714 0.19080001 0.63600004 4279567115
-0.11067144 0.19050001 0.63500005 4280156693
-0.10928952 0.1902 0.634 4280812082
-0.10774095 0.18960001 0.63200003 4281672528
-0.10636857 0.18930002 0.63100004 4282598720
-0.10516667 0.18930002 0.63100004 4283259185
-0.10363524 0.18870001 0.62900001 4283919691
-0.10227428 0.1884 0.62800002 4283988838
-0.1010781 0.1884 0.62800002 4284123475
-0.099722862 0.1881 0.62700003 4284448577
-0.098528571 0.1881 0.62700003 4284773960
-0.097334288 0.1881 0.62700003 4283788112
-0.095986679 0.18780002 0.62600005 4282802216
-0.094794288 0.18780002 0.62600005 4281346561
-0.093601912 0.18780002 0.62600005 4279898119
-0.092261903 0.1875 0.625 4280030478
-0.091071427 0.1875 0.625 4280161800
-0.08973714 0.18719999 0.62400001 4279834115
-0.088548578 0.18719999 0.62400001 4279440898
-0.087219998 0.1869 0.62300003 4279636737
-0.08589524 0.1866 0.62200004 4279832577
-0.084710479 0.1866 0.62200004 4279373826
-0.083659999 0.1869 0.62300003 4278980866
-0.082340956 0.1866 0.62200004 4278913538
-0.081156194 0.1866 0.62200004 4278913026
-0.079714283 0.186 0.62 4278650626
-0.078533329 0.186 0.62 4278453762
-0.077227622 0.1857 0.61900002 4278650882
-0.076048575 0.1857 0.61900002 4278913541
-0.074627623 0.1851 0.61700004 4278847752
-0.073333338 0.18480001 0.61600006 4278845958
-0.072160006 0.18480001 0.61600006 4279567621
-0.070986666 0.18480001 0.61600006 4280289547
-0.069813341 0.18480001 0.61600006 4280682769
-0.068640009 0.18480001 0.61600006 4281010451
-0.067357138 0.18450001 0.61500001 4281079830
-0.066185713 0.18450001 0.61500001 4281214731
-0.065120004 0.18480001 0.61600006 4281415425
-0.063946672 0.18480001 0.61600006 4281681692
-0.062773332 0.18480001 0.61600006 4281812024
-0.061500005 0.18450001 0.61500001 4282007862
-0.060328573 0.18450001 0.61500001 4282403892
-0.059060954 0.1842 0.61400002 4282734400
-0.057891432 0.1842 0.61400002 4282734156
-0.056629524 0.18390001 0.61300004 4282734158
-0.05546191 0.18390001 0.61300004 4282998864
-0.054294288 0.18390001 0.61300004 4283263565
-0.05312667 0.18390001 0.61300004 4283593547
-0.051959049 0.18390001 0.61300004 4283989327
-0.050791427 0.18390001 0.61300004 4284185683
-0.049623813 0.18390001 0.61300004 4284382279
-0.048456192 0.18390001 0.61300004 4284382011
-0.047211431 0.18360001 0.61200005 4284382027
-0.046045717 0.18360001 0.61200005 4284382044
-0.044880003 0.18360001 0.61200005 4284447831
-0.043642856 0.18329999 0.611 4284315475
-0.042339999 0.18270001 0.60900003 4284248918
-0.041180003 0.18270001 0.60900003 4284380506
-0.040020004 0.18270001 0.60900003 4284512340
-0.038987618 0.18329999 0.611 4284576334
-0.037823807 0.18329999 0.611 4284705859
-0.036660001 0.18329999 0.611 4284507449
-0.03549619 0.18329999 0.611 4284309045
-0.034388572 0.18360001 0.61200005 4284441650
-0.033168569 0.18329999 0.611 4284508992
-0.032004762 0.18329999 0.611 4284506958
-0.03074 0.18270001 0.60900003 4284439623
-0.029580001 0.18270001 0.60900003 4284112448
-0.028513333 0.18329999 0.611 4283719747
-0.02726 0.18270001 0.60900003 4283849031
-0.0261 0.18270001 0.60900003 4283978313
-0.024940001 0.18270001 0.60900003 4283913804
-0.023740953 0.18240002 0.60800004 4283849551
-0.022582859 0.18240002 0.60800004 4283651410
-0.021424763 0.18240002 0.60800004 4283453259
-0.020266667 0.18240002 0.60800004 4283454277
-0.019108573 0.18240002 0.60800004 4283455308
-0.017980002 0.18270001 0.60900003 4283388500
-0.016875237 0.18329999 0.611 4283321939
-0.015711429 0.18329999 0.611 4283322194
-0.014547618 0.18329999 0.611 4283256898
-0.013340001 0.18270001 0.60900003 4282994226
-0.012180001 0.18270001 0.60900003 4282797112
-0.01102 0.18270001 0.60900003 4282732094
-0.0098600006 0.18270001 0.60900003 4282667076
-0.0086857146 0.18240002 0.60800004 4282535754
-0.0075152386 0.18210001 0.60700005 4282469950
-0.0063590482 0.18210001 0.60700005 4282404402
-0.0052028573 0.18210001 0.60700005 4282339130
-0.0028857142 0.18179999 0.60600001 4282600517
-0.0017400001 0.18270001 0.60900003 4282862152
-0.00057999999 0.18270001 0.60900003 4283123783
0.00057714287 0.18179999 0.60600001 4283124295
0.0017342858 0.18210001 0.60700005 4283125054
0.0029 0.18270001 0.60900003 4283258421
0.0040533338 0.18240002 0.60800004 4283457593
0.0052114287 0.18240002 0.60800004 4283654462
0.0063800002 0.18270001 0.60900003 4283851593
0.0075400001 0.18270001 0.60900003 4284112725
0.0087000001 0.18270001 0.60900003 4284308561
0.0098600006 0.18270001 0.60900003 4284505934
0.01102 0.18270001 0.60900003 4284703553
0.01216 0.18240002 0.60800004 4284966708
0.013383809 0.18329999 0.611 4285164349
0.014547618 0.18329999 0.611 4285231174
0.015737144 0.18360001 0.61200005 4285363529
0.016902858 0.18360001 0.61200005 4285298509
0.018039048 0.18329999 0.611 4285299037
0.019202856 0.18329999 0.611 4285300078
0.020400003 0.18360001 0.61200005 4285301360
0.021565715 0.18360001 0.61200005 4285501554
0.022731431 0.18360001 0.61200005 4285767526
0.023936192 0.18390001 0.61300004 4285898330
0.025144761 0.1842 0.61400002 4286029154
0.026314287 0.1842 0.61400002 4285964394
0.027483812 0.1842 0.61400002 4285965421
0.028653333 0.1842 0.61400002 4285898864
0.029822858 0.1842 0.61400002 4285832301
0.030992381 0.1842 0.61400002 4285503850
0.032161906 0.1842 0.61400002 4285109864
0.033385713 0.18450001 0.61500001 4285041510
0.034500953 0.1842 0.61400002 4284973148
0.03578667 0.18480001 0.61600006 4284773714
0.036960002 0.18480001 0.61600006 4284574293
0.038133338 0.18480001 0.61600006 4284310617
0.039370481 0.1851 0.61700004 4284112470
0.040545717 0.1851 0.61700004 4283585619
0.041720957 0.1851 0.61700004 4283124311
0.042896193 0.1851 0.61700004 4283114844
0.044142857 0.18540001 0.61800003 4283105601
0.04532 0.18540001 0.61800003 4282384679
0.046497144 0.18540001 0.61800003 4281729300
0.047751427 0.1857 0.61900002 4281143041
0.049009521 0.186 0.62 4280553473
0.050190475 0.186 0.62 4279833089
0.051537145 0.1866 0.62200004 4279112961
0.052721906 0.1866 0.62200004 4279177217
0.053906672 0.1866 0.62200004 4279241729
0.055180002 0.1869 0.62300003 4279305985
0.056457143 0.18719999 0.62400001 4279370497
0.057553336 0.1869 0.62300003 4280156930
0.058834285 0.18719999 0.62400001 4280877825
0.060022857 0.18719999 0.62400001 4282123777
0.06121143 0.18719999 0.62400001 4283435265
0.0625 0.1875 0.625 4284028161
0.063792385 0.18780002 0.62600005 4284686909
0.06508857 0.1881 0.62700003 4285683065
0.066177152 0.18780002 0.62600005 4286679107
0.067477144 0.1881 0.62700003 4287737614
0.068671428 0.1881 0.62700003 4288862042
0.069977149 0.1884 0.62800002 4289390503
0.071173333 0.1884 0.62800002 4289919157
0.072369523 0.1884 0.62800002 4289850564
0.07368286 0.18870001 0.62900001 4289781952
0.07488095 0.18870001 0.62900001 4288204988
0.076320961 0.18930002 0.63100004 4286628255
0.077522859 0.18930002 0.63100004 4286156419
0.078849532 0.18960001 0.63200003 4285750147
0.080180004 0.1899 0.63300002 4284558979
0.081514291 0.1902 0.634 4283433282
0.082721904 0.1902 0.634 4282253569
0.084061913 0.19050001 0.63500005 4281139457
0.085271433 0.19050001 0.63500005 4280092673
0.086617149 0.19080001 0.63600004 4279046145
0.087828577 0.19080001 0.63600004 4279245569
0.089320004 0.19140001 0.63800001 4279445258
0.09067715 0.19170001 0.63900006 4280166163
0.091894291 0.19170001 0.63900006 4280887054
0.093111433 0.19170001 0.63900006 4280755466
0.095066674 0.19320001 0.64400005 4280623887
0.096442863 0.19350001 0.64500004 4280230421
0.09782286 0.1938 0.64600003 4279838481
0.099053338 0.1938 0.64600003 4280362254
0.10043905 0.19410001 0.64700001 4280951815
0.10182857 0.1944 0.648 4281149441
0.10338096 0.19500001 0.65000004 4281347344
0.10461906 0.19500001 0.65000004 4281414688
0.10602 0.1953 0.65100002 4281553430
0.10742477 0.1956 0.65200001 4281873165
0.10883334 0.19590002 0.65300006 4282199565
0.11007715 0.19590002 0.65300006 4281147662
0.11200286 0.1971 0.65700001 4280160785
0.11394381 0.1983 0.66100001 4280622101
0.11520286 0.1983 0.66100001 4281080331
0.11734285 0.1998 0.66600001 4279966210
0.11878953 0.2001 0.66700006 4278852147
0.12006001 0.2001 0.66700006 4280692581
0.18706 0.17910001 0.597 4278585857
0.18819714 0.17910001 0.597 4278519809
0.18901715 0.1788 0.59600002 4278453762
0.19015238 0.1788 0.59600002 4278387969
0.19096668 0.1785 0.59500003 4278387969
0.19210002 0.1785 0.59500003 4278453505
0.19290859 0.17820001 0.59400004 4278388225
0.19404002 0.17820001 0.59400004 4278322945
0.19451429 0.1776 0.59200001 4278453761
0.19564191 0.1776 0.59200001 4278584578
0.19643715 0.17730001 0.59100002 4278453508
0.19722858 0.177 0.59000003 4278322179
0.19801621 0.17670001 0.58900005 4278322178
0.1991381 0.17670001 0.58900005 4278322177
0.19992 0.17640001 0.588 4278322177
0.20104 0.17640001 0.588 4278322433
0.20181619 0.1761 0.58700001 4278322433
0.20293429 0.1761 0.58700001 4278322689
0.20370477 0.17580001 0.58600003 4278387969
0.20447144 0.17550001 0.58500004 4278452993
0.2052343 0.17520002 0.58400005 4278518529
0.20599332 0.1749 0.583 4278518785
0.20674857 0.17460001 0.58200002 4278453249
0.20750001 0.17430001 0.58100003 4278321922
0.20788859 0.17370002 0.57900006 4278387203
0.20863047 0.1734 0.57800001 4278518274
0.20936857 0.17310001 0.57700002 4278387457
0.21046762 0.17310001 0.57700002 4278321921
0.21120001 0.17280002 0.57600003 4278387457
0.21192859 0.17250001 0.57500005 4278452993
0.21265332 0.17219999 0.574 4278387457
0.21374667 0.17219999 0.574 4278321921
0.21483999 0.17219999 0.574 4278256385
0.2178143 0.17370002 0.57900006 4278256385
0.21891716 0.17370002 0.57900006 4278256129
0.22002003 0.17370002 0.57900006 4278256129
0.22074094 0.1734 0.57800001 4278256129
0.22145809 0.17310001 0.57700002 4278256385
0.22217144 0.17280002 0.57600003 4278256385
0.22288097 0.17250001 0.57500005 4278256385
0.22358666 0.17219999 0.574 4278256385
0.22428857 0.1719 0.57300001 4278256641
0.22538 0.1719 0.57300001 4278256641
0.22370477 0.16980001 0.56600004 4278256641
0.22478287 0.16980001 0.56600004 4278257153
0.2254619 0.16950001 0.565 4278322946
0.22653809 0.16950001 0.565 4278256643
0.22761428 0.16950001 0.565 4278256386
0.22828571 0.1692 0.56400001 4278256385
0.22895335 0.1689 0.56300002 4278256385
0.23002572 0.1689 0.56300002 4278256385
0.22904573 0.1674 0.55800003 4278256385
0.2296962 0.16710001 0.55700004 4278256385
0.23034286 0.16680001 0.55600005 4278256641
0.23098572 0.1665 0.55500001 4278257153
0.23204286 0.1665 0.55500001 4278322945
0.2331 0.1665 0.55500001 4278322945
0.23373525 0.16620001 0.55400002 4278322945
0.23436669 0.16590001 0.55300003 4278322433
0.23499431 0.16560002 0.55200005 4278322177
0.23604573 0.16560002 0.55200005 4278256641
0.23709716 0.16560002 0.55200005 4278256897
0.23771714 0.1653 0.551 4278256641
0.23833333 0.16499999 0.55000001 4278323457
0.23851049 0.16440001 0.54800004 4278322434
0.2395543 0.16440001 0.54800004 4278387458
0.24015906 0.16410002 0.54700005 4278322434
0.24076 0.1638 0.546 4278322433
0.24135715 0.1635 0.54500002 4278321921
0.24239525 0.1635 0.54500002 4278321921
0.24298668 0.16320002 0.54400003 4278322433
0.24312574 0.16260001 0.54200006 4278322945
0.24415812 0.16260001 0.54200006 4278322433
0.2447381 0.16230001 0.54100001 4278322177
0.24576858 0.16230001 0.54100001 4278387713
0.24679905 0.16230001 0.54100001 4278453505
0.24737145 0.162 0.54000002 4278387969
0.24794 0.1617 0.53900003 4278257921
0.24896668 0.1617 0.53900003 4278323201
0.24952953 0.16140002 0.53800005 4278388993
0.25008854 0.1611 0.537 4278322433
0.25064379 0.16080001 0.53600001 4278256641
0.25166479 0.16080001 0.53600001 4278256641
0.25268573 0.16080001 0.53600001 4278256641
0.25323334 0.1605 0.53500003 4278257153
0.25377718 0.1602 0.53400004 4278257922
0.2547943 0.1602 0.53400004 4278257412
0.25533241 0.15990001 0.53300005 4278257154
0.25634766 0.15990001 0.53300005 4278256641
0.25687999 0.1596 0.53200001 4278256641
0.25789332 0.1596 0.53200001 4278256641
0.25890666 0.1596 0.53200001 4278256641
0.25943145 0.1593 0.53100002 4278256385
0.2599524 0.15900001 0.53000003 4278256386
0.26046953 0.1587 0.52900004 4278321923
0.26147717 0.1587 0.52900004 4278387458
0.26198858 0.15839998 0.528 4278321921
0.2624962 0.15810001 0.52700001 4278322433
0.26350001 0.15810001 0.52700001 4278256641
0.26450381 0.15810001 0.52700001 4278256897
0.26550764 0.15810001 0.52700001 4278321922
0.26651144 0.15810001 0.52700001 4278387457
0.26700762 0.1578 0.52600002 4278321921
0.26800951 0.1578 0.52600002 4278256385
0.26798859 0.15720001 0.52400005 4278256385
0.2689867 0.15720001 0.52400005 4278256641
0.26998478 0.15720001 0.52400005 4278322177
0.27046573 0.15689999 0.523 4278453249
0.2714619 0.15689999 0.523 4278321921
0.27245808 0.15689999 0.523 4278256641
0.27345431 0.15689999 0.523 4278256385
0.27445048 0.15689999 0.523 4278256385
0.27492002 0.1566 0.52200001 4278256385
0.27538574 0.15630001 0.52100003 4278256385
0.27637812 0.15630001 0.52100003 4278256385
0.27683812 0.15600002 0.52000004 4278256129
0.2778286 0.15600002 0.52000004 4278321665
0.27881905 0.15600002 0.52000004 4278387201
0.27980953 0.15600002 0.52000004 4278387201
0.28080001 0.15600002 0.52000004 4278387457
-0.37533814 0.22491907 0.74500006 4287979616
-0.37492287 0.22552286 0.74700004 4288045405
-0.37250003 0.22491907 0.74500006 4288110687
-0.37008476 0.22431524 0.74300003 4288110434
-0.36866954 0.22431524 0.74300003 4288110171
-0.36725429 0.22431524 0.74300003 4288175444
-0.36780858 0.22552286 0.74700004 4288240462
-0.36540478 0.22491907 0.74500006 4288108872
-0.36398575 0.22491907 0.74500006 4287976784
-0.36110669 0.22401334 0.74200004 4287977049
-0.36017811 0.22431524 0.74300003 4287976786
-0.35828003 0.22401334 0.74200004 4287845195
-0.35734764 0.22431524 0.74300003 4287779150
-0.35545334 0.22401334 0.74200004 4287845713
-0.3530857 0.22340952 0.74000001 4287976528
-0.3516762 0.22340952 0.74000001 4287714128
-0.35026667 0.22340952 0.74000001 4287514447
-0.34885716 0.22340952 0.74000001 4287448399
-0.3512038 0.22582477 0.74800003 4287448138
-0.34977904 0.22582477 0.74800003 4287251270
-0.34788859 0.22552286 0.74700004 4287121722
-0.34646574 0.22552286 0.74700004 4287120686
-0.34550476 0.22582477 0.74800003 4287121465
-0.34362003 0.22552286 0.74700004 4287253571
-0.34219715 0.22552286 0.74700004 4287445582
-0.33986193 0.22491907 0.74500006 4287772761
-0.33935145 0.22552286 0.74700004 4288106087
-0.33792859 0.22552286 0.74700004 4287915894
-0.33470383 0.22431524 0.74300003 4287718761
-0.33418572 0.22491907 0.74500006 4288766812
-0.33276668 0.22491907 0.74500006 4289831552
-0.33134764 0.22491907 0.74500006 4290562212
-0.3308143 0.22552286 0.74700004 4291282849
-0.32983238 0.22582477 0.74800003 4291151773
-0.32840762 0.22582477 0.74800003 4291018138
-0.32698286 0.22582477 0.74800003 4289639575
-0.32642859 0.22642858 0.75000006 4288316790
-0.32586667 0.22703239 0.75200003 4284110421
-0.32486573 0.22733429 0.75300002 4279905360
-0.32429051 0.22793812 0.75500005 4279305035
-0.32328004 0.22824 0.75600004 4278724663
-0.32354289 0.22944763 0.76000005 4280432931
-0.32251906 0.22974953 0.76100004 4282137643
-0.32191333 0.23035333 0.76300001 4282531890
-0.32045999 0.23035333 0.76300001 4282990388
-0.32109714 0.23186286 0.76800001 4282859062
-0.32129905 0.23307048 0.77200001 4282730814
-0.32024288 0.23337239 0.77300006 4282995782
-0.31959525 0.2339762 0.77500004 4283257400
-0.31893998 0.23458001 0.77700001 4283060522
-0.31827715 0.23518382 0.77900004 4282933057
-0.31597999 0.23458001 0.77700001 4284835161
-0.3145 0.23458001 0.77700001 4286809956
-0.31301999 0.23458001 0.77700001 4289375343
-0.29622859 0.23186286 0.76800001 4294901484
-0.29476571 0.23186286 0.76800001 4294901490
-0.29330286 0.23186286 0.76800001 4294901236
-0.29146001 0.23156096 0.76700002 4294900982
-0.28924286 0.23095717 0.76500005 4294901237
-0.28891429 0.23186286 0.76800001 4294901492
-0.28745142 0.23186286 0.76800001 4294901497
-0.28747812 0.23307048 0.77200001 4294901502
-0.28600764 0.23307048 0.77200001 4294901502
-0.28453714 0.23307048 0.77200001 4294901502
-0.28306666 0.23307048 0.77200001 4294901502
-0.28013715 0.23186286 0.76800001 4294901502
-0.27867427 0.23186286 0.76800001 4294901502
-0.27721143 0.23186286 0.76800001 4294901502
-0.27538952 0.23156096 0.76700002 4294901502
-0.27321431 0.23095717 0.76500005 4294901502
-0.27033621 0.22974953 0.76100004 4294901502
-0.26888669 0.22974953 0.76100004 4294901502
-0.26743716 0.22974953 0.76100004 4294901502
-0.26738572 0.23095717 0.76500005 4294901502
-0.26592857 0.23095717 0.76500005 4294901502
-0.26447144 0.23095717 0.76500005 4294901502
-0.26370189 0.23156096 0.76700002 4294901502
-0.26224095 0.23156096 0.76700002 4294770430
-0.26078001 0.23156096 0.76700002 4294704891
-0.25965714 0.23186286 0.76800001 4294704888
-0.2581943 0.23186286 0.76800001 4294701534
-0.25639716 0.23156096 0.76700002 4291681221
-0.25360668 0.23035333 0.76300001 4288653237
-0.25149238 0.22974953 0.76100004 4287134886
-0.25004286 0.22974953 0.76100004 4285694877
-0.23762001 0.23035333 0.76300001 4288059300
-0.23616667 0.23035333 0.76300001 4288125085
-0.23471333 0.23035333 0.76300001 4287077014
-0.23264858 0.22974953 0.76100004 4286018413
-0.23119906 0.22974953 0.76100004 4284435524
-0.23302764 0.24061811 0.79700005 4282535245
-0.23150954 0.24061811 0.79700005 4282075467
-0.22826 0.23880668 0.79100001 4282271049
-0.22732668 0.23941049 0.79300004 4282467399
-0.22524667 0.23880668 0.79100001 4282796102
-0.22430572 0.23941049 0.79300004 4283189575
-0.22223333 0.23880668 0.79100001 4282665801
-0.22016859 0.23820285 0.78900003 4282138689
-0.21866572 0.23820285 0.78900003 4281876025
-0.21688762 0.23790097 0.78800005 4281611049
-0.21538669 0.23790097 0.78800005 4280953114
-0.20845714 0.23186286 0.76800001 4280297762
-0.2069943 0.23186286 0.76800001 4279839017
-0.2066019 0.23307048 0.77200001 4279380255
-0.20725715 0.23548572 0.78000003 4280233493
-0.20577143 0.23548572 0.78000003 4281087006
-0.20533334 0.23669335 0.78400004 4281284648
-0.20513999 0.23820285 0.78900003 4281548079
-0.20337906 0.23790097 0.78800005 4281679414
-0.2021343 0.23820285 0.78900003 4281809976
-0.19986857 0.23729715 0.78600001 4281743931
-0.19837144 0.23729715 0.78600001 4281743928
-0.19687429 0.23729715 0.78600001 4281612854
-0.19537714 0.23729715 0.78600001 4281480751
-0.19388001 0.23729715 0.78600001 4281086249
-0.19287239 0.23790097 0.78800005 4280754977
-0.19137144 0.23790097 0.78800005 4280293914
-0.18938857 0.23729715 0.78600001 4279898384
-0.18741335 0.23669335 0.78400004 4279703046
-0.18686858 0.23790097 0.78800005 4279572231
-0.18536763 0.23790097 0.78800005 4279245832
-0.14335714 0.2019743 0.66900003 4279506185
-0.14165811 0.20137048 0.66700006 4280161545
-0.14017715 0.20106858 0.66600001 4280816660
-0.13870001 0.20076667 0.66500002 4280229408
-0.13681334 0.19986098 0.66200006 4279702035
-0.13534762 0.19955905 0.66100001 4279503878
-0.13348001 0.19865334 0.65800005 4279307273
-0.13202572 0.19835143 0.65700001 4279045388
-0.13037619 0.19774763 0.65500003 4278783755
-0.12853715 0.19684191 0.65200001 4279177738
-0.12710001 0.19654 0.65100002 4279571465
-0.12528001 0.19563429 0.648 4279572233
-0.12385428 0.19533238 0.64700001 4279571720
-0.12243238 0.19503048 0.64600003 4279572743
-0.1210143 0.19472858 0.64500004 4279637252
-0.11904286 0.19352096 0.64100003 4279308546
-0.1176381 0.19321907 0.64000005 4278981891
-0.11641905 0.19321907 0.64000005 4278982917
-0.11502001 0.19291715 0.63900006 4278980867
-0.11362476 0.19261524 0.63800001 4278978818
-0.11205714 0.19201145 0.63600004 4279043590
-0.11067144 0.19170953 0.63500005 4278649611
-0.10928952 0.19140762 0.634 4278256418
-0.10774095 0.19080381 0.63200003 4278518841
-0.10636857 0.19050191 0.63100004 4278782507
-0.10516667 0.19050191 0.63100004 4279701789
-0.10363524 0.1898981 0.62900001 4280691500
-0.10227428 0.18959619 0.62800002 4282074427
-0.10091715 0.18929429 0.62700003 4283455558
-0.099722862 0.18929429 0.62700003 4284574545
-0.098371439 0.1889924 0.62600005 4285689162
-0.097179055 0.1889924 0.62600005 4285689923
-0.095986679 0.1889924 0.62600005 4285750828
-0.094642855 0.18869047 0.625 4283584277
-0.093452379 0.18869047 0.625 4281411602
-0.092114285 0.18838857 0.62400001 4281276176
-0.090925716 0.18838857 0.62400001 4281146124
-0.089593336 0.18808667 0.62300003 4280754184
-0.088406667 0.18808667 0.62300003 4280426247
-0.087080002 0.18778478 0.62200004 4280294918
-0.08589524 0.18778478 0.62200004 4280162055
-0.084710479 0.18778478 0.62200004 4279767304
-0.083659999 0.18808667 0.62300003 4279373574
-0.082340956 0.18778478 0.62200004 4279307523
-0.081156194 0.18778478 0.62200004 4279307523
-0.079971433 0.18778478 0.62200004 4278914564
-0.078533329 0.18718095 0.62 4278587395
-0.077227622 0.18687905 0.61900002 4278915586
-0.075925715 0.18657714 0.61800003 4279308547
-0.074627623 0.18627526 0.61700004 4278849796
-0.073333338 0.18597335 0.61600006 4278391043
-0.072160006 0.18597335 0.61600006 4278391043
-0.070986666 0.18597335 0.61600006 4278390792
-0.069699995 0.18567143 0.61500001 4278456078
-0.06852857 0.18567143 0.61500001 4278586636
-0.067357138 0.18567143 0.61500001 4278520843
-0.066185713 0.18567143 0.61500001 4278454280
-0.065120004 0.18597335 0.61600006 4278453508
-0.063946672 0.18597335 0.61600006 4278519568
-0.06267143 0.18567143 0.61500001 4278454556
-0.061500005 0.18567143 0.61500001 4278454299
-0.060230475 0.18536952 0.61400002 4278650650
-0.059060954 0.18536952 0.61400002 4278847264
-0.057797145 0.18506762 0.61300004 4278978342
-0.056537148 0.18476573 0.61200005 4279112487
-0.05537143 0.18476573 0.61200005 4279705384
-0.054205719 0.18476573 0.61200005 4280363816
-0.053040005 0.18476573 0.61200005 4281153576
-0.051874291 0.18476573 0.61200005 4282008105
-0.050708573 0.18476573 0.61200005 4282469675
-0.049542859 0.18476573 0.61200005 4282994724
-0.048377149 0.18476573 0.61200005 4283388702
-0.047211431 0.18476573 0.61200005 4283783208
-0.046045717 0.18476573 0.61200005 4283784498
-0.044880003 0.18476573 0.61200005 4283848238
-0.043642856 0.1844638 0.611 4284043307
-0.042339999 0.18386 0.60900003 4284240429
-0.041112382 0.18355811 0.60800004 4284568623
-0.03995429 0.18355811 0.60800004 4284899379
-0.038796194 0.18355811 0.60800004 4285164856
-0.037638098 0.18355811 0.60800004 4285491002
-0.036480002 0.18355811 0.60800004 4285358397
-0.035380002 0.18386 0.60900003 4285224505
-0.034219999 0.18386 0.60900003 4285690421
-0.033059999 0.18386 0.60900003 4286215490
-0.031900004 0.18386 0.60900003 4286347343
-0.030689526 0.18355811 0.60800004 4286478413
-0.029580001 0.18386 0.60900003 4286347596
-0.028420001 0.18386 0.60900003 4286216777
-0.027215241 0.18355811 0.60800004 4286282566
-0.026057145 0.18355811 0.60800004 4286347844
-0.024899049 0.18355811 0.60800004 4286544195
-0.023740953 0.18355811 0.60800004 4286740039
-0.022545716 0.18325621 0.60700005 4286477387
-0.021389525 0.18325621 0.60700005 4286214729
-0.020233335 0.18325621 0.60700005 4286214471
-0.019045714 0.18295428 0.60600001 4286281038
-0.017920954 0.18325621 0.60700005 4286347861
-0.016875237 0.1844638 0.611 4286412880
-0.015660001 0.18386 0.60900003 4286412364
-0.014500001 0.18386 0.60900003 4286477632
-0.013340001 0.18386 0.60900003 4286346292
-0.012180001 0.18386 0.60900003 4286281015
-0.01102 0.18386 0.60900003 4286281274
-0.0098438095 0.18355811 0.60800004 4286281540
-0.0086857146 0.18355811 0.60800004 4286347598
-0.0075152386 0.18325621 0.60700005 4286477891
-0.0063590482 0.18325621 0.60700005 4286411832
-0.0051942859 0.18295428 0.60600001 4286411837
-0.00404 0.18295428 0.60600001 4286477635
-0.0028809526 0.18265238 0.60500002 4286544449
-0.0017285715 0.18265238 0.60500002 4286808128
-0.00057714287 0.18295428 0.60600001 4287135041
0.00057714287 0.18295428 0.60600001 4287134531
0.0017314287 0.18295428 0.60600001 4287135042
0.0028904765 0.18325621 0.60700005 4287332417
0.0040466674 0.18325621 0.60700005 4287586882
0.0052114287 0.18355811 0.60800004 4287465796
0.0063695242 0.18355811 0.60800004 4287334731
0.0075400001 0.18386 0.60900003 4287466067
0.0086857146 0.18355811 0.60800004 4287656018
0.0098600006 0.18386 0.60900003 4287464785
0.01102 0.18386 0.60900003 4287328068
0.01216 0.18355811 0.60800004 4287331127
0.013340001 0.18386 0.60900003 4287396152
0.014547618 0.1844638 0.611 4287199033
0.015711429 0.1844638 0.611 4287068228
0.016875237 0.1844638 0.611 4286872144
0.017980002 0.18386 0.60900003 4286739540
0.01914 0.18386 0.60900003 4286344792
0.020366667 0.1844638 0.611 4286018909
0.021530475 0.1844638 0.611 4286020961
0.022731431 0.18476573 0.61200005 4286021207
0.023936192 0.18506762 0.61300004 4285890381
0.025144761 0.18536952 0.61400002 4285822283
0.026314287 0.18536952 0.61400002 4285295689
0.027439049 0.18506762 0.61300004 4284768068
0.028606668 0.18506762 0.61300004 4284175167
0.029774288 0.18506762 0.61300004 4283647547
0.030941907 0.18506762 0.61300004 4282595895
0.032161906 0.18536952 0.61400002 4281544758
0.033331428 0.18536952 0.61400002 4281018164
0.034500953 0.18536952 0.61400002 4280490031
0.03578667 0.18597335 0.61600006 4280224297
0.036960002 0.18597335 0.61600006 4280028208
0.038133338 0.18597335 0.61600006 4279963446
0.03930667 0.18597335 0.61600006 4279897904
0.040480006 0.18597335 0.61600006 4279373866
0.041653335 0.18597335 0.61600006 4278913580
0.042896193 0.18627526 0.61700004 4279239982
0.044071428 0.18627526 0.61700004 4279632673
0.045246668 0.18627526 0.61700004 4279370260
0.046497144 0.18657714 0.61800003 4279107850
0.047751427 0.18687905 0.61900002 4279307009
0.048930477 0.18687905 0.61900002 4279568129
0.050190475 0.18718095 0.62 4278911745
0.051371425 0.18718095 0.62 4278256129
0.05255238 0.18718095 0.62 4278255873
0.053733334 0.18718095 0.62 4278321433
0.054914284 0.18718095 0.62 4278714673
0.056366667 0.18808667 0.62300003 4279107872
0.057553336 0.18808667 0.62300003 4281270544
0.058740001 0.18808667 0.62300003 4283447343
0.060022857 0.18838857 0.62400001 4285689934
0.06121143 0.18838857 0.62400001 4287990349
0.0625 0.18869047 0.625 4289570125
0.063690476 0.18869047 0.625 4291151982
0.064984769 0.1889924 0.62600005 4292537488
0.066177152 0.1889924 0.62600005 4293915753
0.067369528 0.1889924 0.62600005 4294114371
0.068671428 0.18929429 0.62700003 4294306418
0.069977149 0.18959619 0.62800002 4292729249
0.071173333 0.18959619 0.62800002 4291149979
0.072369523 0.18959619 0.62800002 4289243030
0.073565714 0.18959619 0.62800002 4287392123
0.074761905 0.18959619 0.62800002 4283575136
0.076079048 0.1898981 0.62900001 4279768657
0.077522859 0.19050191 0.63100004 4279042370
0.078724764 0.19050191 0.63100004 4278387010
0.080180004 0.19110572 0.63300002 4278387011
0.081514291 0.19140762 0.634 4278387496
0.082721904 0.19140762 0.634 4279108878
0.084061913 0.19170953 0.63500005 4279832331
0.085271433 0.19170953 0.63500005 4279837705
0.086617149 0.19201145 0.63600004 4279838728
0.087828577 0.19201145 0.63600004 4280167431
0.089320004 0.19261524 0.63800001 4280560660
0.090535238 0.19261524 0.63800001 4280691746
0.091894291 0.19291715 0.63900006 4280821527
0.093111433 0.19291715 0.63900006 4280559629
0.09477143 0.19382286 0.64200002 4280362252
0.096293338 0.19442667 0.64400005 4279706123
0.09782286 0.19503048 0.64600003 4279117583
0.099053338 0.19503048 0.64600003 4280097044
0.10043905 0.19533238 0.64700001 4281085194
0.10182857 0.19563429 0.648 4282004993
0.10338096 0.19623812 0.65000004 4282922511
0.10461906 0.19623812 0.65000004 4282070814
0.10602 0.19654 0.65100002 4281281562
0.10758953 0.19714382 0.65300006 4281016854
0.10883334 0.19714382 0.65300006 4280752915
0.11007715 0.19714382 0.65300006 4279899153
0.11217334 0.19865334 0.65800005 4279112466
0.1141162 0.19986098 0.66200006 4279638290
0.11537715 0.19986098 0.66200006 4280162314
0.11716667 0.20076667 0.66500002 4279244545
0.11861143 0.20106858 0.66600001 4278326558
0.11988 0.20106858 0.66600001 4278847802
0.1878819 0.17993525 0.59600002 4278519553
0.18901715 0.17993525 0.59600002 4278454017
0.18983334 0.17963333 0.59500003 4278453505
0.19096668 0.17963333 0.59500003 4278453505
0.19177715 0.17933145 0.59400004 4278453761
0.19290859 0.17933145 0.59400004 4278388481
0.19371335 0.17902954 0.59300005 4278322945
0.19451429 0.17872761 0.59200001 4278519041
0.19531144 0.17842571 0.59100002 4278781185
0.19643715 0.17842571 0.59100002 4278584834
0.1968943 0.17782192 0.58900005 4278453762
0.19801621 0.17782192 0.58900005 4278388225
0.1991381 0.17782192 0.58900005 4278387969
0.20026001 0.17782192 0.58900005 4278387969
0.20138192 0.17782192 0.58900005 4278387969
0.20216 0.17751999 0.588 4278387969
0.20293429 0.17721811 0.58700001 4278388227
0.20370477 0.1769162 0.58600003 4278387717
0.20447144 0.17661428 0.58500004 4278387715
0.20488286 0.17601047 0.583 4278387713
0.20564 0.17570858 0.58200002 4278453249
0.20639335 0.17540666 0.58100003 4278388225
0.20714287 0.17510478 0.58000004 4278322433
0.20788859 0.17480287 0.57900006 4278322178
0.20863047 0.17450094 0.57800001 4278387457
0.20973143 0.17450094 0.57800001 4278387457
0.21046762 0.17419906 0.57700002 4278387457
0.21120001 0.17389715 0.57600003 4278453249
0.21192859 0.17359525 0.57500005 4278584065
0.21265332 0.17329334 0.574 4278452993
0.21411906 0.17359525 0.57500005 4278321921
0.21483999 0.17329334 0.574 4278256386
0.21706191 0.17419906 0.57700002 4278256385
0.21891716 0.17480287 0.57900006 4278256641
0.22002003 0.17480287 0.57900006 4278256641
0.22112288 0.17480287 0.57900006 4278257153
0.2218419 0.17450094 0.57800001 4278256129
0.22217144 0.17389715 0.57600003 4278256642
0.22288097 0.17359525 0.57500005 4278256641
0.22397621 0.17359525 0.57500005 4278256641
0.22428857 0.17299144 0.57300001 4278321921
0.22538 0.17299144 0.57300001 4278256385
0.22370477 0.17087811 0.56600004 4278256385
0.22478287 0.17087811 0.56600004 4278257154
0.2254619 0.17057618 0.565 4278322434
0.22653809 0.17057618 0.565 4278256642
0.22761428 0.17057618 0.565 4278256385
0.22828571 0.17027429 0.56400001 4278256385
0.22936 0.17027429 0.56400001 4278256385
0.22920859 0.16936859 0.56100005 4278256641
0.22945619 0.16876477 0.55900002 4278256385
0.2296962 0.16816096 0.55700004 4278256641
0.23034286 0.16785906 0.55600005 4278256641
0.23098572 0.16755714 0.55500001 4278257409
0.23204286 0.16755714 0.55500001 4278322945
0.2331 0.16755714 0.55500001 4278323201
0.23415715 0.16755714 0.55500001 4278322945
0.23479049 0.16725525 0.55400002 4278322689
0.23499431 0.16665143 0.55200005 4278322433
0.23604573 0.16665143 0.55200005 4278257409
0.23709716 0.16665143 0.55200005 4278256641
0.23771714 0.16634952 0.551 4278256641
0.23833333 0.16604762 0.55000001 4278322433
0.23894572 0.16574572 0.54900002 4278322689
0.2395543 0.16544382 0.54800004 4278322433
0.24059811 0.16544382 0.54800004 4278322945
0.24120097 0.16514193 0.54700005 4278322177
0.2418 0.16484 0.546 4278321921
0.24239525 0.16453809 0.54500002 4278321921
0.24298668 0.1642362 0.54400003 4278322945
0.24357431 0.16393429 0.54300004 4278322945
0.24415812 0.16363239 0.54200006 4278322689
0.24519049 0.16363239 0.54200006 4278322689
0.24576858 0.16333048 0.54100001 4278322945
0.24679905 0.16333048 0.54100001 4278322433
0.24737145 0.16302858 0.54000002 4278322433
0.2484 0.16302858 0.54000002 4278322689
0.24896668 0.16272667 0.53900003 4278322945
0.24952953 0.16242477 0.53800005 4278388225
0.25008854 0.16212286 0.537 4278322689
0.25064379 0.16182095 0.53600001 4278256641
0.25166479 0.16182095 0.53600001 4278256641
0.25268573 0.16182095 0.53600001 4278256641
0.25323334 0.16151905 0.53500003 4278256641
0.2542524 0.16151905 0.53500003 4278322177
0.2547943 0.16121715 0.53400004 4278322434
0.25533241 0.16091526 0.53300005 4278322434
0.25634766 0.16091526 0.53300005 4278256897
0.25687999 0.16061333 0.53200001 4278256641
0.25789332 0.16061333 0.53200001 4278256641
0.25890666 0.16061333 0.53200001 4278256641
0.25943145 0.16031143 0.53100002 4278256385
0.2599524 0.16000953 0.53000003 4278321921
0.26046953 0.15970762 0.52900004 4278321922
0.26147717 0.15970762 0.52900004 4278321921
0.26198858 0.15940571 0.528 4278321921
0.2624962 0.15910381 0.52700001 4278322177
0.26350001 0.15910381 0.52700001 4278322177
0.26450381 0.15910381 0.52700001 4278321921
0.26550764 0.15910381 0.52700001 4278321921
0.26651144 0.15910381 0.52700001 4278321921
0.26751521 0.15910381 0.52700001 4278321665
0.26800951 0.15880191 0.52600002 4278321921
0.26798859 0.1581981 0.52400005 4278256385
0.2689867 0.1581981 0.52400005 4278256385
0.26998478 0.1581981 0.52400005 4278256641
0.27098286 0.1581981 0.52400005 4278321921
0.2714619 0.15789619 0.523 4278256385
0.27245808 0.15789619 0.523 4278256386
0.27345431 0.15789619 0.523 4278256387
0.27445048 0.15789619 0.523 4278256386
0.27544665 0.15789619 0.523 4278256641
0.27591431 0.15759428 0.52200001 4278256385
0.27637812 0.1572924 0.52100003 4278256385
0.27683812 0.15699048 0.52000004 4278321921
0.27836287 0.1572924 0.52100003 4278387457
0.27881905 0.15699048 0.52000004 4278452737
0.27980953 0.15699048 0.52000004 4278387201
0.28080001 0.15699048 0.52000004 4278321665
-0.37716097 0.22573049 0.74300003 4287519326
