# .PCD v0.7 - Point Cloud Data file format
VERSION 0.7
FIELDS x y z rgba
SIZE 4 4 4 4
TYPE F F F U
COUNT 1 1 1 1
WIDTH 1124
HEIGHT 1
VIEWPOINT 0 0 0 1 0 0 0
POINTS 1124
DATA ascii
-0.17900953 0.45527619 1.48 4285092965
-0.17619048 0.45527619 1.48 4284829802
-0.17337143 0.45527619 1.48 4285160303
-0.17055239 0.45527619 1.48 4285556603
-0.16773333 0.45527619 1.48 4286739336
-0.16558285 0.45712194 1.4860001 4287921559
-0.16275239 0.45712194 1.4860001 4288908711
-0.1599219 0.45712194 1.4860001 4289893284
-0.15772572 0.45896766 1.4920001 4289762210
-0.15561049 0.46112099 1.4990001 4289630104
-0.15275525 0.46112099 1.4990001 4288711823
-0.1499 0.46112099 1.4990001 4287793576
-0.14418952 0.46112099 1.4990001 4291280064
-0.14133428 0.46112099 1.4990001 4291411135
-0.081739999 0.43282002 1.4070001 4282530598
-0.079060003 0.43282002 1.4070001 4280355342
-0.076380007 0.43282002 1.4070001 4278255984
-0.073700003 0.43282002 1.4070001 4286357714
-0.070767626 0.43128189 1.4020001 4294508264
-0.068097152 0.43128189 1.4020001 4294704894
-0.06566 0.43282002 1.4070001 4294901502
-0.062980004 0.43282002 1.4070001 4294901502
-0.060557149 0.43466577 1.4130001 4294901502
-0.057620004 0.43282002 1.4070001 4294901502
-0.054940004 0.43282002 1.4070001 4294901502
-0.052482858 0.43466577 1.4130001 4294901502
-0.04958 0.43282002 1.4070001 4294901502
-0.0469 0.43282002 1.4070001 4294901502
-0.044220004 0.43282002 1.4070001 4294901502
-0.041540001 0.43282002 1.4070001 4294901502
-0.038721904 0.43128189 1.4020001 4294901502
-0.03605143 0.43128189 1.4020001 4294901502
-0.033380955 0.43128189 1.4020001 4294901502
-0.030710477 0.43128189 1.4020001 4294901502
-0.028040001 0.43128189 1.4020001 4294901502
-0.025369523 0.43128189 1.4020001 4294901502
-0.022699049 0.43128189 1.4020001 4294901502
-0.020028573 0.43128189 1.4020001 4294901502
-0.017494287 0.43466577 1.4130001 4294901502
-0.014802858 0.43466577 1.4130001 4294901502
-0.012111429 0.43466577 1.4130001 4294901501
-0.0093800006 0.43282002 1.4070001 4294901500
-0.0067285718 0.43466577 1.4130001 4294901240
-0.0040200003 0.43282002 1.4070001 4294901493
-0.0013400001 0.43282002 1.4070001 4294901494
0.0013400001 0.43282002 1.4070001 4294835959
0.0040200003 0.43282002 1.4070001 4294835954
0.0067000003 0.43282002 1.4070001 4294769646
0.0093800006 0.43282002 1.4070001 4294703597
0.012017144 0.43128189 1.4020001 4294505452
0.01468762 0.43128189 1.4020001 4294374121
0.01728381 0.42943621 1.396 4294176742
0.020028573 0.43128189 1.4020001 4293979622
0.022699049 0.43128189 1.4020001 4294044646
0.025369523 0.43128189 1.4020001 4294109923
0.028040001 0.43128189 1.4020001 4293978336
0.030819999 0.43282002 1.4070001 4293846749
0.033500001 0.43282002 1.4070001 4293649626
0.036180001 0.43282002 1.4070001 4293518292
0.038721904 0.43128189 1.4020001 4293386446
0.041392382 0.43128189 1.4020001 4293189053
0.043874286 0.42943621 1.396 4292465325
0.046533335 0.42943621 1.396 4291741856
0.04919238 0.42943621 1.396 4291476883
0.051628575 0.42759049 1.3900001 4291212181
0.054276194 0.42759049 1.3900001 4290885271
0.056923814 0.42759049 1.3900001 4290624173
0.05957143 0.42759049 1.3900001 4290691524
0.06221905 0.42759049 1.3900001 4290693316
0.06463334 0.42605242 1.3850001 4291283908
0.066980004 0.42420667 1.3790001 4291874501
0.069354288 0.42266861 1.3740001 4291873991
0.071971431 0.42266861 1.3740001 4291941576
0.074588574 0.42266861 1.3740001 4291875017
0.077205718 0.42266861 1.3740001 4291873232
0.079822861 0.42266861 1.3740001 4292658904
0.082440004 0.42266861 1.3740001 4293455851
0.085057147 0.42266861 1.3740001 4294180606
0.08767429 0.42266861 1.3740001 4294901502
0.090620004 0.42420667 1.3790001 4294901502
0.09365239 0.42605242 1.3850001 4294901502
0.096638106 0.42759049 1.3900001 4294901502
0.099285722 0.42759049 1.3900001 4294901502
0.10237334 0.42943621 1.396 4294901502
0.10503238 0.42943621 1.396 4294901502
0.10815429 0.43128189 1.4020001 4294901502
0.11082476 0.43128189 1.4020001 4294901502
0.11390001 0.43282002 1.4070001 4294901502
0.11658 0.43282002 1.4070001 4294901502
0.11926001 0.43282002 1.4070001 4294901502
0.12194 0.43282002 1.4070001 4294901502
0.12462001 0.43282002 1.4070001 4294901502
0.12730001 0.43282002 1.4070001 4294901502
0.12998 0.43282002 1.4070001 4294901502
0.13266 0.43282002 1.4070001 4294901502
0.13534001 0.43282002 1.4070001 4294901502
0.13802001 0.43282002 1.4070001 4294901502
0.1407 0.43282002 1.4070001 4294901502
0.14338002 0.43282002 1.4070001 4294901502
0.14606 0.43282002 1.4070001 4294901502
0.14873999 0.43282002 1.4070001 4294901502
0.15088192 0.43128189 1.4020001 4294901502
0.15355238 0.43128189 1.4020001 4294901502
0.15622286 0.43128189 1.4020001 4294901502
0.15889335 0.43128189 1.4020001 4294901502
0.16156381 0.43128189 1.4020001 4294901502
0.1642343 0.43128189 1.4020001 4294901502
0.16690478 0.43128189 1.4020001 4294901502
0.16957524 0.43128189 1.4020001 4294901502
0.17224571 0.43128189 1.4020001 4294901502
0.17491619 0.43128189 1.4020001 4294901502
0.17758667 0.43128189 1.4020001 4294901502
0.18025714 0.43128189 1.4020001 4294901502
0.18292762 0.43128189 1.4020001 4294901502
0.18559811 0.43128189 1.4020001 4294901502
0.18826857 0.43128189 1.4020001 4294901502
0.19093905 0.43128189 1.4020001 4294901502
0.19430001 0.43282002 1.4070001 4294901502
0.19698001 0.43282002 1.4070001 4294901502
0.19966 0.43282002 1.4070001 4294901502
0.20234001 0.43282002 1.4070001 4294901502
0.20502001 0.43282002 1.4070001 4294901502
0.20858572 0.43466577 1.4130001 4294901502
0.21127716 0.43466577 1.4130001 4294901502
0.21306001 0.43282002 1.4070001 4294901502
0.21574001 0.43282002 1.4070001 4294901502
0.21764383 0.43128189 1.4020001 4294901502
0.21937144 0.42943621 1.396 4294901502
0.22203048 0.42943621 1.396 4294901502
0.22565526 0.43128189 1.4020001 4294901502
0.22832571 0.43128189 1.4020001 4294901502
0.23000763 0.42943621 1.396 4294901502
0.23266667 0.42943621 1.396 4294901502
0.23532572 0.42943621 1.396 4294901502
0.23798476 0.42943621 1.396 4294901502
0.24254 0.43282002 1.4070001 4294901502
0.27880192 0.45712194 1.4860001 4292537813
0.28276953 0.45896766 1.4920001 4293130985
0.28446287 0.45712194 1.4860001 4293459197
0.28613332 0.45527619 1.48 4293787389
0.29012382 0.45712194 1.4860001 4293852926
0.29177144 0.45527619 1.48 4293852926
0.29459047 0.45527619 1.48 4294246142
0.2974095 0.45527619 1.48 4294639358
0.2988086 0.45312288 1.473 4294246142
0.30161428 0.45312288 1.473 4293852926
0.30442002 0.45312288 1.473 4293459710
0.30597433 0.45127717 1.4670001 4293132004
0.3087686 0.45127717 1.4670001 4293128138
0.31156287 0.45127717 1.4670001 4293058766
0.31307143 0.44943145 1.4610001 4293319379
0.31585431 0.44943145 1.4610001 4293580257
0.31863716 0.44943145 1.4610001 4293781999
0.32274002 0.45127717 1.4670001 4293918454
0.32553431 0.45127717 1.4670001 4294377214
0.32832858 0.45127717 1.4670001 4294901500
0.33112288 0.45127717 1.4670001 4294901498
0.33391717 0.45127717 1.4670001 4294901500
0.33671144 0.45127717 1.4670001 4294901502
0.34089431 0.45312288 1.473 4294901502
0.34369999 0.45312288 1.473 4294835454
0.34650573 0.45312288 1.473 4294834938
0.35097143 0.45527619 1.48 4294573302
0.35522479 0.45712194 1.4860001 4294377210
0.35805523 0.45712194 1.4860001 4294442750
0.36404288 0.46112099 1.4990001 4294573822
0.36689809 0.46112099 1.4990001 4294704894
0.36975336 0.46112099 1.4990001 4294901502
0.37260857 0.46112099 1.4990001 4294901502
0.37546384 0.46112099 1.4990001 4294901502
0.37831905 0.46112099 1.4990001 4294901502
0.38402954 0.46112099 1.4990001 4294901502
0.48679143 0.45312288 1.473 4284769371
0.48959717 0.45312288 1.473 4284639581
0.49039719 0.45127717 1.4670001 4284573274
0.49319148 0.45127717 1.4670001 4284176984
0.49598575 0.45127717 1.4670001 4283849072
0.49674001 0.44943145 1.4610001 4285559689
0.49952286 0.44943145 1.4610001 4287340686
-0.37740478 0.20273811 0.65500003 4287597201
-0.37673146 0.20304763 0.65600002 4287597204
-0.3754819 0.20304763 0.65600002 4287597461
-0.37822574 0.20521431 0.66300005 4287597462
-0.3769629 0.20521431 0.66300005 4287597461
-0.37683335 0.20583333 0.66500002 4287531924
-0.37613145 0.20614286 0.66600001 4287531666
-0.3771143 0.20738095 0.67000002 4287466127
-0.37696004 0.208 0.67200005 4287399812
-0.37679809 0.20861904 0.67400002 4286610298
-0.37607142 0.20892857 0.67500001 4285888632
-0.37478569 0.20892857 0.67500001 4286018935
-0.37405336 0.20923811 0.67600006 4286150263
-0.37442002 0.21016666 0.67900002 4286084984
-0.37367621 0.21047619 0.68000001 4286084219
-0.37402382 0.21140477 0.68300003 4286280831
-0.37654287 0.21357144 0.69000006 4286476411
-0.37577242 0.21388096 0.69100004 4285951863
-0.37554002 0.21450001 0.69300002 4285426801
-0.37530002 0.21511906 0.69500005 4285095532
-0.37559047 0.21604763 0.69800001 4284833127
-0.37586954 0.2169762 0.70100003 4284767330
-0.37453431 0.2169762 0.70100003 4284767071
-0.37426382 0.21759523 0.70300001 4284701532
-0.37292477 0.21759523 0.70300001 4284701790
-0.3721143 0.21790478 0.70400006 4284505951
-0.37077338 0.21790478 0.70400006 4284374617
-0.45790571 0.35688096 1.153 4279767318
-0.45570952 0.35688096 1.153 4279637274
-0.45508671 0.35811907 1.1570001 4279572511
-0.45288289 0.35811907 1.1570001 4279638564
-0.45067906 0.35811907 1.1570001 4279769639
-0.44692475 0.35688096 1.153 4279900970
-0.44472855 0.35688096 1.153 4280097322
-0.44138098 0.35595241 1.1500001 4280162857
-0.43919051 0.35595241 1.1500001 4280294955
-0.43700004 0.35595241 1.1500001 4280164909
-0.43594381 0.35688096 1.153 4280099119
-0.43374762 0.35688096 1.153 4280361265
-0.43454573 0.35935715 1.161 4280689202
-0.43382385 0.36059526 1.1650001 4280820787
-0.43160477 0.36059526 1.1650001 4280951856
-0.42938575 0.36059526 1.1650001 4281148461
-0.42863333 0.36183333 1.169 4281410602
-0.42494765 0.36059526 1.1650001 4281083175
-0.4227286 0.36059526 1.1650001 4280754474
-0.42050955 0.36059526 1.1650001 4280229422
-0.4182905 0.36059526 1.1650001 4279769131
-0.41607144 0.36059526 1.1650001 4279309097
-0.41385242 0.36059526 1.1650001 4278914343
-0.41163334 0.36059526 1.1650001 4278717221
-0.40941432 0.36059526 1.1650001 4278520618
-0.39649716 0.42528573 1.3740001 4279704377
-0.39216 0.42342857 1.368 4279442489
-0.38670668 0.42033333 1.358 4279639354
-0.38412002 0.42033333 1.358 4279903551
-0.38153335 0.42033333 1.358 4280296004
-0.37894666 0.42033333 1.358 4280754505
-0.37636 0.42033333 1.358 4281606479
-0.37212193 0.41847622 1.3520001 4282531153
-0.36818004 0.41692859 1.3470001 4283390547
-0.3656143 0.41692859 1.3470001 4284245080
-0.36170095 0.41538095 1.342 4284442718
-0.35753906 0.41352385 1.3360001 4284643956
-0.35233718 0.41042861 1.3260001 4286353035
-0.34981146 0.41042861 1.3260001 4288124306
-0.3459762 0.40888098 1.3210001 4287733146
-0.34346002 0.40888098 1.3210001 4287339414
-0.34094384 0.40888098 1.3210001 4286742163
-0.33842763 0.40888098 1.3210001 4286153626
-0.33591145 0.40888098 1.3210001 4288719522
-0.33339527 0.40888098 1.3210001 4291280306
-0.33087906 0.40888098 1.3210001 4290360003
-0.32960573 0.41042861 1.3260001 4289442238
-0.32708001 0.41042861 1.3260001 4289704377
-0.32455429 0.41042861 1.3260001 4290032830
-0.32202861 0.41042861 1.3260001 4288985284
-0.32191241 0.41352385 1.3360001 4287929510
-0.32080191 0.41538095 1.342 4286539911
-0.31943145 0.41692859 1.3470001 4285228161
-0.32062954 0.42188096 1.363 4285686139
-0.31920001 0.42342857 1.368 4286219673
-0.3165943 0.42342857 1.368 4288267960
-0.3153657 0.42528573 1.3740001 4290294953
-0.31274858 0.42528573 1.3740001 4287924634
-0.31013146 0.42528573 1.3740001 4285626509
-0.17092286 0.26835716 0.86700004 4279837236
-0.16888097 0.26773813 0.86500007 4281413428
-0.16723335 0.26773813 0.86500007 4281479988
-0.16596858 0.26835716 0.86700004 4281546806
-0.16431715 0.26835716 0.86700004 4281478457
-0.16266572 0.26835716 0.86700004 4281413184
-0.16212857 0.27021429 0.87300003 4282797383
-0.16046572 0.27021429 0.87300003 4284241235
-0.15880287 0.27021429 0.87300003 4284702303
-0.15714 0.27021429 0.87300003 4285163107
-0.15547715 0.27021429 0.87300003 4285622375
-0.15416668 0.27083337 0.87500006 4286146927
-0.15215144 0.27021429 0.87300003 4286016119
-0.15048857 0.27021429 0.87300003 4285885300
-0.14916667 0.27083337 0.87500006 4285819762
-0.14750001 0.27083337 0.87500006 4285754482
-0.19388762 0.45995238 1.4860001 4279239959
-0.19182858 0.46180955 1.4920001 4280222747
-0.18822667 0.45995238 1.4860001 4281216315
-0.18539621 0.45995238 1.4860001 4283325787
-0.18256572 0.45995238 1.4860001 4285487710
-0.17973526 0.45995238 1.4860001 4285290081
-0.17690475 0.45995238 1.4860001 4285158756
-0.17407429 0.45995238 1.4860001 4285158504
-0.1712438 0.45995238 1.4860001 4285227384
-0.16841334 0.45995238 1.4860001 4286016136
-0.16558285 0.45995238 1.4860001 4286870929
-0.16275239 0.45995238 1.4860001 4288382619
-0.1599219 0.45995238 1.4860001 4289891991
-0.15772572 0.46180955 1.4920001 4289894292
-0.15488382 0.46180955 1.4920001 4289958805
-0.15275525 0.4639762 1.4990001 4288303510
-0.078779049 0.43395239 1.4020001 4280224023
-0.076108575 0.43395239 1.4020001 4278255980
-0.073438093 0.43395239 1.4020001 4286224322
-0.070767626 0.43395239 1.4020001 4294177504
-0.068097152 0.43395239 1.4020001 4294508286
-0.06542667 0.43395239 1.4020001 4294901501
-0.062980004 0.43550003 1.4070001 4294901501
-0.0603 0.43550003 1.4070001 4294901501
-0.057620004 0.43550003 1.4070001 4294901502
-0.054940004 0.43550003 1.4070001 4294901502
-0.05226 0.43550003 1.4070001 4294901502
-0.04958 0.43550003 1.4070001 4294901502
-0.0469 0.43550003 1.4070001 4294901502
-0.04406286 0.43395239 1.4020001 4294901502
-0.041392382 0.43395239 1.4020001 4294901502
-0.038721904 0.43395239 1.4020001 4294901501
-0.035897143 0.43209526 1.396 4294901500
-0.033238098 0.43209526 1.396 4294901500
-0.030579049 0.43209526 1.396 4294901500
-0.02792 0.43209526 1.396 4294901498
-0.025260951 0.43209526 1.396 4294901497
-0.022601904 0.43209526 1.396 4294901495
-0.019942857 0.43209526 1.396 4294901494
-0.017419999 0.43550003 1.4070001 4294901496
-0.01468762 0.43395239 1.4020001 4294901498
-0.012017144 0.43395239 1.4020001 4294901498
-0.0093466667 0.43395239 1.4020001 4294901498
-0.0066761905 0.43395239 1.4020001 4294901496
-0.0040057148 0.43395239 1.4020001 4294901495
-0.0013352381 0.43395239 1.4020001 4294901496
0.0013352381 0.43395239 1.4020001 4294834937
0.0040057148 0.43395239 1.4020001 4294835952
0.0066761905 0.43395239 1.4020001 4294701799
0.0093466667 0.43395239 1.4020001 4294570729
0.011965714 0.43209526 1.396 4294439914
0.014624761 0.43209526 1.396 4294308584
0.01728381 0.43209526 1.396 4294308582
0.019942857 0.43209526 1.396 4294373862
0.022601904 0.43209526 1.396 4294373607
0.025369523 0.43395239 1.4020001 4294374119
0.028040001 0.43395239 1.4020001 4294374888
0.030710477 0.43395239 1.4020001 4294439655
0.033380955 0.43395239 1.4020001 4294308070
0.03605143 0.43395239 1.4020001 4294176226
0.038721904 0.43395239 1.4020001 4293979102
0.041215237 0.43209526 1.396 4293780179
0.043874286 0.43209526 1.396 4293647048
0.046533335 0.43209526 1.396 4293580472
0.048980955 0.43023813 1.3900001 4293055145
0.051628575 0.43023813 1.3900001 4292524960
0.054276194 0.43023813 1.3900001 4291273880
0.056923814 0.43023813 1.3900001 4290092960
0.05957143 0.43023813 1.3900001 4289895335
0.06221905 0.43023813 1.3900001 4289708977
0.064866677 0.43023813 1.3900001 4290823098
0.067271426 0.42869049 1.3850001 4291938494
0.069354288 0.42528573 1.3740001 4291939778
0.071971431 0.42528573 1.3740001 4291939779
0.074588574 0.42528573 1.3740001 4291940036
0.077205718 0.42528573 1.3740001 4291939790
0.079822861 0.42528573 1.3740001 4293053912
0.082440004 0.42528573 1.3740001 4294178539
0.085366666 0.42683333 1.3790001 4294508286
0.087993339 0.42683333 1.3790001 4294901502
0.090620004 0.42683333 1.3790001 4294901502
0.09365239 0.42869049 1.3850001 4294901502
0.096638106 0.43023813 1.3900001 4294901502
0.099285722 0.43023813 1.3900001 4294901502
0.10237334 0.43209526 1.396 4294901502
0.10503238 0.43209526 1.396 4294901502
0.10769143 0.43209526 1.396 4294901502
0.11082476 0.43395239 1.4020001 4294901502
0.11349525 0.43395239 1.4020001 4294901502
0.11616572 0.43395239 1.4020001 4294901502
0.11883619 0.43395239 1.4020001 4294901502
0.12150668 0.43395239 1.4020001 4294901502
0.12417714 0.43395239 1.4020001 4294901502
0.12684762 0.43395239 1.4020001 4294901502
0.12951809 0.43395239 1.4020001 4294901502
0.13266 0.43550003 1.4070001 4294901502
0.13534001 0.43550003 1.4070001 4294901502
0.13802001 0.43550003 1.4070001 4294901502
0.1402 0.43395239 1.4020001 4294901502
0.14287049 0.43395239 1.4020001 4294901502
0.14554095 0.43395239 1.4020001 4294901502
0.14821143 0.43395239 1.4020001 4294901502
0.15023619 0.43209526 1.396 4294901502
0.15355238 0.43395239 1.4020001 4294901502
0.15555428 0.43209526 1.396 4294901502
0.15889335 0.43395239 1.4020001 4294901502
0.16087238 0.43209526 1.396 4294901502
0.16353144 0.43209526 1.396 4294901502
0.16619048 0.43209526 1.396 4294901502
0.16884953 0.43209526 1.396 4294901502
0.17150857 0.43209526 1.396 4294901502
0.17416762 0.43209526 1.396 4294901502
0.17682667 0.43209526 1.396 4294901502
0.17948572 0.43209526 1.396 4294901502
0.18214476 0.43209526 1.396 4294901502
0.18480381 0.43209526 1.396 4294901502
0.18746285 0.43209526 1.396 4294901502
0.1901219 0.43209526 1.396 4294901502
0.19360954 0.43395239 1.4020001 4294901502
0.19628 0.43395239 1.4020001 4294901502
0.19895048 0.43395239 1.4020001 4294901502
0.20234001 0.43550003 1.4070001 4294901502
0.20502001 0.43550003 1.4070001 4294901502
0.2077 0.43550003 1.4070001 4294901502
0.21038002 0.43550003 1.4070001 4294901502
0.21230286 0.43395239 1.4020001 4294901502
0.21497335 0.43395239 1.4020001 4294901502
0.21671239 0.43209526 1.396 4294901502
0.21937144 0.43209526 1.396 4294901502
0.22203048 0.43209526 1.396 4294901502
0.22468953 0.43209526 1.396 4294901502
0.22734857 0.43209526 1.396 4294901502
0.23000763 0.43209526 1.396 4294901502
0.23266667 0.43209526 1.396 4294901502
0.23532572 0.43209526 1.396 4294901502
0.23986001 0.43550003 1.4070001 4294901502
0.24254 0.43550003 1.4070001 4294901502
0.24522002 0.43550003 1.4070001 4294901431
0.27838573 0.4639762 1.4990001 4294901482
0.27880192 0.45995238 1.4860001 4294901481
0.28163239 0.45995238 1.4860001 4294901491
0.28331429 0.45809522 1.48 4294901501
0.28478 0.45592856 1.473 4294901501
0.28758571 0.45592856 1.473 4294901502
0.28920859 0.45407146 1.4670001 4294901502
0.29319715 0.45592856 1.473 4294901502
0.29600286 0.45592856 1.473 4294901502
0.29759145 0.45407146 1.4670001 4294901502
0.30038574 0.45407146 1.4670001 4294901502
0.30318001 0.45407146 1.4670001 4294901502
0.30597433 0.45407146 1.4670001 4294901489
0.3087686 0.45407146 1.4670001 4294901476
0.31028858 0.45221433 1.4610001 4294901478
0.31307143 0.45221433 1.4610001 4294704872
0.31585431 0.45221433 1.4610001 4294502893
0.31863716 0.45221433 1.4610001 4293710579
0.32274002 0.45407146 1.4670001 4292998901
0.32553431 0.45407146 1.4670001 4293917432
0.32832858 0.45407146 1.4670001 4294901242
0.33112288 0.45407146 1.4670001 4294901500
0.33391717 0.45407146 1.4670001 4294901501
0.33671144 0.45407146 1.4670001 4294901502
0.34089431 0.45592856 1.473 4294901502
0.34369999 0.45592856 1.473 4294901502
0.34650573 0.45592856 1.473 4294900728
0.34931144 0.45592856 1.473 4294372594
0.35379049 0.45809522 1.48 4293848051
0.35660952 0.45809522 1.48 4294044403
0.36234286 0.46180955 1.4920001 4294243576
0.36518478 0.46180955 1.4920001 4294573822
0.3680267 0.46180955 1.4920001 4294901502
0.37260857 0.4639762 1.4990001 4294901502
0.37546384 0.4639762 1.4990001 4294901502
0.37831905 0.4639762 1.4990001 4294901502
0.48480859 0.45407146 1.4670001 4284835677
0.48760289 0.45407146 1.4670001 4284836446
0.49039719 0.45407146 1.4670001 4284836445
0.49319148 0.45407146 1.4670001 4284241245
0.49598575 0.45407146 1.4670001 4283649139
0.49674001 0.45221433 1.4610001 4285495434
0.49952286 0.45221433 1.4610001 4287403151
-0.37822574 0.20647715 0.66300005 4287597206
-0.37810001 0.2071 0.66500002 4287661973
-0.37740001 0.20741142 0.66600001 4287597205
-0.37669623 0.20772287 0.66700006 4287465873
-0.3771143 0.20865715 0.67000002 4287335054
-0.37696004 0.20928001 0.67200005 4287204232
-0.37679809 0.20990287 0.67400002 4286610051
-0.37607142 0.21021429 0.67500001 4286019710
-0.37478569 0.21021429 0.67500001 4286019194
-0.37405336 0.21052572 0.67600006 4286084728
-0.37442002 0.21146001 0.67900002 4286018935
-0.37477526 0.2123943 0.68200004 4286017911
-0.37347621 0.2123943 0.68200004 4286083959
-0.37708858 0.21519716 0.69100004 4286214005
-0.37685999 0.21582 0.69300002 4285755252
-0.37554002 0.21582 0.69300002 4285361519
-0.37530002 0.21644287 0.69500005 4285160554
-0.37505239 0.21706572 0.69700003 4284962917
-0.37586954 0.21831143 0.70100003 4284898657
-0.37453431 0.21831143 0.70100003 4284832605
-0.37426382 0.21893428 0.70300001 4284898138
-0.37292477 0.21893428 0.70300001 4284963674
-0.3721143 0.21924573 0.70400006 4284768091
-0.37077338 0.21924573 0.70400006 4284636763
-0.45790571 0.35907716 1.153 4279636256
-0.45570952 0.35907716 1.153 4279702817
-0.45508671 0.36032286 1.1570001 4279834657
-0.45288289 0.36032286 1.1570001 4279835170
-0.45067906 0.36032286 1.1570001 4279901736
-0.44692475 0.35907716 1.153 4280032047
-0.44472855 0.35907716 1.153 4280164140
-0.44253236 0.35907716 1.153 4280426025
-0.4403362 0.35907716 1.153 4280623914
-0.43814 0.35907716 1.153 4280492331
-0.43480957 0.35814288 1.1500001 4280362541
-0.43261907 0.35814288 1.1500001 4280493360
-0.43454573 0.36156857 1.161 4280624177
-0.43531334 0.36405998 1.169 4280689970
-0.43308666 0.36405998 1.169 4280756015
-0.43086001 0.36405998 1.169 4280952109
-0.43010002 0.36530575 1.1730001 4281082410
-0.42494765 0.36281431 1.1650001 4280754983
-0.4227286 0.36281431 1.1650001 4280426286
-0.42050955 0.36281431 1.1650001 4279966517
-0.4182905 0.36281431 1.1650001 4279440174
-0.41607144 0.36281431 1.1650001 4279176999
-0.41385242 0.36281431 1.1650001 4278913573
-0.41022003 0.36156857 1.161 4278782500
-0.40800858 0.36156857 1.161 4278717995
-0.38981906 0.41793716 1.342 4279769661
-0.38870576 0.41949433 1.3470001 4279441977
-0.38614002 0.41949433 1.3470001 4279115831
-0.38499814 0.42105144 1.3520001 4279574582
-0.38242289 0.42105144 1.3520001 4280035134
-0.37984765 0.42105144 1.3520001 4280492871
-0.37727243 0.42105144 1.3520001 4280950603
-0.37469718 0.42105144 1.3520001 4282203215
-0.37074572 0.41949433 1.3470001 4283456086
-0.36681333 0.41793716 1.342 4283916126
-0.36425713 0.41793716 1.342 4284376413
-0.36170095 0.41793716 1.342 4285099612
-0.35620096 0.41451144 1.3310001 4285890680
-0.35233718 0.4129543 1.3260001 4287141012
-0.34981146 0.4129543 1.3260001 4288388242
-0.3459762 0.41139719 1.3210001 4287732369
-0.34346002 0.41139719 1.3210001 4287142029
-0.34094384 0.41139719 1.3210001 4287527818
-0.33842763 0.41139719 1.3210001 4287989412
-0.33464003 0.40984002 1.3160001 4289180094
-0.33339527 0.41139719 1.3210001 4290427578
-0.33087906 0.41139719 1.3210001 4289966775
-0.32836288 0.41139719 1.3210001 4289573301
-0.3258467 0.41139719 1.3210001 4289902260
-0.32333052 0.41139719 1.3210001 4290298046
-0.32202861 0.4129543 1.3260001 4288585160
-0.32070762 0.41451144 1.3310001 4286875306
-0.32080191 0.41793716 1.342 4286082956
-0.31943145 0.41949433 1.3470001 4285295751
-0.32062954 0.42447716 1.363 4286743682
-0.31920001 0.42603427 1.368 4288191658
-0.3165943 0.42603427 1.368 4288389842
-0.3139886 0.42603427 1.368 4288653739
-0.31274858 0.42790288 1.3740001 4287202180
-0.31013146 0.42790288 1.3740001 4285755015
-0.17052858 0.26938573 0.86500007 4280560442
-0.16829525 0.26845145 0.86200005 4281414453
-0.16665334 0.26845145 0.86200005 4281611313
-0.16558573 0.26938573 0.86500007 4281808944
-0.16393811 0.26938573 0.86500007 4282003248
-0.16266572 0.27000856 0.86700004 4282264895
-0.16175716 0.2712543 0.87100005 4283389262
-0.16009811 0.2712543 0.87100005 4284505174
-0.15880287 0.27187714 0.87300003 4284899678
-0.15678 0.2712543 0.87100005 4285294438
-0.15547715 0.27187714 0.87300003 4285622638
-0.15381429 0.27187714 0.87300003 4286016376
-0.15215144 0.27187714 0.87300003 4285885570
-0.15048857 0.27187714 0.87300003 4285820284
-0.14882571 0.27187714 0.87300003 4285689206
-0.14716287 0.27187714 0.87300003 4285558389
-0.19182858 0.46465147 1.4920001 4279502084
-0.18822667 0.46278289 1.4860001 4279898156
-0.18539621 0.46278289 1.4860001 4282537556
-0.18256572 0.46278289 1.4860001 4285161304
-0.17900953 0.46091428 1.48 4285028189
-0.17619048 0.46091428 1.48 4284961887
-0.17407429 0.46278289 1.4860001 4285026657
-0.17055239 0.46091428 1.48 4285160309
-0.16773333 0.46091428 1.48 4285818505
-0.16558285 0.46278289 1.4860001 4286475660
-0.16275239 0.46278289 1.4860001 4287396495
-0.1599219 0.46278289 1.4860001 4288318090
-0.15772572 0.46465147 1.4920001 4288909958
-0.15488382 0.46465147 1.4920001 4289501074
-0.15275525 0.46683145 1.4990001 4287782046
-0.078104772 0.43288574 1.3900001 4280032800
-0.075782858 0.43475428 1.396 4278255977
-0.073123805 0.43475428 1.396 4285290931
-0.07046476 0.43475428 1.396 4292405208
-0.067805715 0.43475428 1.396 4293656318
-0.065146662 0.43475428 1.396 4294901501
-0.062756196 0.43662286 1.4020001 4294901501
-0.0603 0.43818 1.4070001 4294901501
-0.057620004 0.43818 1.4070001 4294901502
-0.054744765 0.43662286 1.4020001 4294901502
-0.05226 0.43818 1.4070001 4294901502
-0.04958 0.43818 1.4070001 4294901502
-0.046733335 0.43662286 1.4020001 4294901502
-0.043874286 0.43475428 1.396 4294901502
-0.041215237 0.43475428 1.396 4294901502
-0.038556192 0.43475428 1.396 4294901500
-0.03574286 0.43288574 1.3900001 4294901498
-0.033095241 0.43288574 1.3900001 4294901498
-0.030447621 0.43288574 1.3900001 4294835963
-0.027800001 0.43288574 1.3900001 4294835703
-0.025152382 0.43288574 1.3900001 4294835444
-0.022504762 0.43288574 1.3900001 4294900977
-0.019857144 0.43288574 1.3900001 4294901486
-0.01728381 0.43475428 1.396 4294901234
-0.014624761 0.43475428 1.396 4294835702
-0.011965714 0.43475428 1.396 4294835959
-0.0093066664 0.43475428 1.396 4294835704
-0.006647619 0.43475428 1.396 4294900984
-0.0039885715 0.43475428 1.396 4294901241
-0.0013295239 0.43475428 1.396 4294901498
0.0013295239 0.43475428 1.396 4294835963
0.0039885715 0.43475428 1.396 4294835950
0.006647619 0.43475428 1.396 4294636257
0.0093066664 0.43475428 1.396 4294439397
0.011965714 0.43475428 1.396 4294308585
0.014624761 0.43475428 1.396 4294241768
0.017209524 0.43288574 1.3900001 4294308071
0.019942857 0.43475428 1.396 4294374631
0.022601904 0.43475428 1.396 4294374632
0.025260951 0.43475428 1.396 4294440428
0.02792 0.43475428 1.396 4294505969
0.030710477 0.43662286 1.4020001 4294505969
0.033380955 0.43662286 1.4020001 4294440434
0.03605143 0.43662286 1.4020001 4294440688
0.038556192 0.43475428 1.396 4294375150
0.041215237 0.43475428 1.396 4294309609
0.043874286 0.43475428 1.396 4294177508
0.046533335 0.43475428 1.396 4294045649
0.048980955 0.43288574 1.3900001 4293650623
0.051628575 0.43288574 1.3900001 4293321388
0.054276194 0.43288574 1.3900001 4292663962
0.056923814 0.43288574 1.3900001 4292072338
0.05957143 0.43288574 1.3900001 4291873163
0.06221905 0.43288574 1.3900001 4291674014
0.064866677 0.43288574 1.3900001 4291477425
0.067271426 0.43132862 1.3850001 4291281079
0.069909528 0.43132862 1.3850001 4291217342
0.072233334 0.42946002 1.3790001 4291153598
0.074860007 0.42946002 1.3790001 4291482047
0.077205718 0.42790288 1.3740001 4291744971
0.079822861 0.42790288 1.3740001 4293053656
0.082440004 0.42790288 1.3740001 4294311659
0.085366666 0.42946002 1.3790001 4294573822
0.087993339 0.42946002 1.3790001 4294901502
0.090620004 0.42946002 1.3790001 4294901502
0.09365239 0.43132862 1.3850001 4294901502
0.096290484 0.43132862 1.3850001 4294901502
0.099285722 0.43288574 1.3900001 4294901502
0.10193334 0.43288574 1.3900001 4294901502
0.10458095 0.43288574 1.3900001 4294901502
0.10769143 0.43475428 1.396 4294901502
0.11035048 0.43475428 1.396 4294901502
0.11300953 0.43475428 1.396 4294901502
0.11566857 0.43475428 1.396 4294901502
0.11832762 0.43475428 1.396 4294901502
0.12098667 0.43475428 1.396 4294901502
0.12417714 0.43662286 1.4020001 4294901502
0.12684762 0.43662286 1.4020001 4294901502
0.12951809 0.43662286 1.4020001 4294901502
0.13218857 0.43662286 1.4020001 4294901502
0.13485906 0.43662286 1.4020001 4294901502
0.13752952 0.43662286 1.4020001 4294901502
0.13959999 0.43475428 1.396 4294901502
0.14225906 0.43475428 1.396 4294901502
0.1449181 0.43475428 1.396 4294901502
0.14757715 0.43475428 1.396 4294901502
0.15023619 0.43475428 1.396 4294901502
0.15289524 0.43475428 1.396 4294901502
0.15555428 0.43475428 1.396 4294901502
0.15821333 0.43475428 1.396 4294901502
0.16087238 0.43475428 1.396 4294901502
0.16353144 0.43475428 1.396 4294901502
0.16619048 0.43475428 1.396 4294901502
0.16884953 0.43475428 1.396 4294901502
0.17150857 0.43475428 1.396 4294901502
0.17416762 0.43475428 1.396 4294901502
0.17606668 0.43288574 1.3900001 4294901502
0.17948572 0.43475428 1.396 4294901502
0.18214476 0.43475428 1.396 4294901502
0.18400954 0.43288574 1.3900001 4294901502
0.18665716 0.43288574 1.3900001 4294901502
0.18930478 0.43288574 1.3900001 4294901502
0.19278094 0.43475428 1.396 4294901502
0.19544001 0.43475428 1.396 4294901502
0.19809905 0.43475428 1.396 4294901502
0.2007581 0.43475428 1.396 4294901502
0.20341714 0.43475428 1.396 4294901502
0.20696191 0.43662286 1.4020001 4294901502
0.2096324 0.43662286 1.4020001 4294901502
0.2113943 0.43475428 1.396 4294901502
0.21405335 0.43475428 1.396 4294901502
0.21671239 0.43475428 1.396 4294901502
0.21937144 0.43475428 1.396 4294901502
0.22203048 0.43475428 1.396 4294901502
0.22468953 0.43475428 1.396 4294901502
0.22734857 0.43475428 1.396 4294901502
0.23000763 0.43475428 1.396 4294901502
0.23266667 0.43475428 1.396 4294901502
0.23532572 0.43475428 1.396 4294901502
0.23798476 0.43475428 1.396 4294901502
0.23685144 0.42790288 1.3740001 4294901502
0.23946859 0.42790288 1.3740001 4294901486
0.24208573 0.42790288 1.3740001 4292542175
0.26126572 0.45686576 1.4670001 4290182894
0.26406002 0.45686576 1.4670001 4292280062
0.27031049 0.46278289 1.4860001 4294442750
0.26964858 0.45686576 1.4670001 4294639358
0.27355716 0.4587343 1.473 4294901502
0.27636287 0.4587343 1.473 4294901502
0.27803144 0.45686576 1.4670001 4294901502
0.28082573 0.45686576 1.4670001 4294901502
0.28362003 0.45686576 1.4670001 4294901502
0.2864143 0.45686576 1.4670001 4294901502
0.28802574 0.45499718 1.4610001 4294901502
0.29200289 0.45686576 1.4670001 4294901502
0.29479715 0.45686576 1.4670001 4294901502
0.29759145 0.45686576 1.4670001 4294901502
0.30038574 0.45686576 1.4670001 4294901502
0.30318001 0.45686576 1.4670001 4294901502
0.30472288 0.45499718 1.4610001 4294901502
0.30750573 0.45499718 1.4610001 4294901502
0.31028858 0.45499718 1.4610001 4294901502
0.31307143 0.45499718 1.4610001 4294770430
0.31585431 0.45499718 1.4610001 4294704890
0.31863716 0.45499718 1.4610001 4294309623
0.32274002 0.45686576 1.4670001 4293914612
0.32420287 0.45499718 1.4610001 4294047218
0.32832858 0.45686576 1.4670001 4294114552
0.33112288 0.45686576 1.4670001 4294508286
0.33391717 0.45686576 1.4670001 4294901502
0.33671144 0.45686576 1.4670001 4294901502
0.34089431 0.4587343 1.473 4294901502
0.34369999 0.4587343 1.473 4294901502
0.34650573 0.4587343 1.473 4294900982
0.34931144 0.4587343 1.473 4294174959
0.35211715 0.4587343 1.473 4293521132
0.35492286 0.4587343 1.473 4293454825
0.35942855 0.46091428 1.48 4293454323
0.36518478 0.46465147 1.4920001 4293850110
0.3680267 0.46465147 1.4920001 4294246142
0.37086859 0.46465147 1.4920001 4294573822
0.37546384 0.46683145 1.4990001 4294901502
0.3765524 0.46465147 1.4920001 4294901502
0.38117433 0.46683145 1.4990001 4294901502
0.38402954 0.46683145 1.4990001 4294901502
0.38507813 0.46465147 1.4920001 4294901502
0.48480859 0.45686576 1.4670001 4285033566
0.48760289 0.45686576 1.4670001 4284968031
0.49039719 0.45686576 1.4670001 4284903265
0.49319148 0.45686576 1.4670001 4283649635
0.49598575 0.45686576 1.4670001 4282466423
0.49878004 0.45686576 1.4670001 4284839563
0.49952286 0.45499718 1.4610001 4287269008
0.49818003 0.45126003 1.4490001 4287336085
-0.37810001 0.20836666 0.66500002 4287793554
-0.37740001 0.20867999 0.66600001 4287597201
-0.37669623 0.20899336 0.66700006 4287465871
-0.37655145 0.20962001 0.66900003 4287203980
-0.37696004 0.21056001 0.67200005 4287007880
-0.37679809 0.21118666 0.67400002 4286544260
-0.3755143 0.21118666 0.67400002 4286150783
-0.37423047 0.21118666 0.67400002 4286084986
-0.37405336 0.21181335 0.67600006 4286084215
-0.37497142 0.21306667 0.68000001 4286018420
-0.37477526 0.21369334 0.68200004 4285952883
-0.37840477 0.21651335 0.69100004 4285952882
-0.37818003 0.21714 0.69300002 4285951604
-0.37685999 0.21714 0.69300002 4285624438
-0.37554002 0.21714 0.69300002 4285362027
-0.37530002 0.21776667 0.69500005 4285225569
-0.37559047 0.21870667 0.69800001 4285159009
-0.37586954 0.21964668 0.70100003 4285029986
-0.37560284 0.22027333 0.70300001 4284963934
-0.37426382 0.22027333 0.70300001 4285095002
-0.37345526 0.22058667 0.70400006 4285291868
-0.3721143 0.22058667 0.70400006 4285095774
-0.37077338 0.22058667 0.70400006 4284899166
-0.45570952 0.36127335 1.153 4279833890
-0.45508671 0.36252668 1.1570001 4280097309
-0.45288289 0.36252668 1.1570001 4280032025
-0.45067906 0.36252668 1.1570001 4280032036
-0.44692475 0.36127335 1.153 4280163120
-0.44472855 0.36127335 1.153 4280294954
-0.44253236 0.36127335 1.153 4280622629
-0.4403362 0.36127335 1.153 4281016358
-0.43814 0.36127335 1.153 4280820008
-0.43329716 0.35907999 1.146 4280689964
-0.43111429 0.35907999 1.146 4280624176
-0.42893144 0.35907999 1.146 4280558901
-0.43680289 0.36754003 1.1730001 4280559419
-0.43456858 0.36754003 1.1730001 4280624692
-0.43233433 0.36754003 1.1730001 4280690222
-0.43010002 0.36754003 1.1730001 4280821548
-0.42640668 0.36628667 1.169 4280494122
-0.42418 0.36628667 1.169 4280163629
-0.42195335 0.36628667 1.169 4279638320
-0.41972667 0.36628667 1.169 4279176747
-0.41749999 0.36628667 1.169 4279045159
-0.41527334 0.36628667 1.169 4278913828
-0.41304666 0.36628667 1.169 4278913570
-0.41082001 0.36628667 1.169 4278980135
-0.40275717 0.36503336 1.1650001 4279309352
-0.40053812 0.36503336 1.1650001 4279309355
-0.39695144 0.36377999 1.161 4279440686
-0.39473999 0.36377999 1.161 4279637806
-0.39252856 0.36377999 1.161 4279769647
-0.38981906 0.42049333 1.342 4279572535
-0.38726285 0.42049333 1.342 4279179826
-0.38614002 0.42206001 1.3470001 4278853173
-0.38357434 0.42206001 1.3470001 4279509816
-0.38242289 0.42362669 1.3520001 4280230975
-0.37984765 0.42362669 1.3520001 4280689991
-0.37727243 0.42362669 1.3520001 4281150799
-0.37331146 0.42206001 1.3470001 4282734680
-0.37074572 0.42206001 1.3470001 4284374616
-0.36517337 0.41861337 1.3360001 4284444249
-0.36262858 0.41861337 1.3360001 4284510568
-0.36008382 0.41861337 1.3360001 4285822072
-0.35753906 0.41861337 1.3360001 4287203978
-0.3549943 0.41861337 1.3360001 4287928988
-0.34849238 0.41391337 1.3210001 4288649111
-0.3459762 0.41391337 1.3210001 4287796626
-0.34346002 0.41391337 1.3210001 4286941331
-0.34094384 0.41391337 1.3210001 4288379285
-0.33842763 0.41391337 1.3210001 4289829031
-0.33464003 0.41234669 1.3160001 4289706170
-0.33339527 0.41391337 1.3210001 4289574329
-0.33087906 0.41391337 1.3210001 4289639352
-0.32836288 0.41391337 1.3210001 4289770172
-0.3258467 0.41391337 1.3210001 4290165696
-0.32333052 0.41391337 1.3210001 4290557616
-0.32202861 0.41548002 1.3260001 4288184992
-0.32070762 0.41704667 1.3310001 4285824145
-0.32080191 0.42049333 1.342 4285626242
-0.31943145 0.42206001 1.3470001 4285428622
-0.32062954 0.42707333 1.363 4287798170
-0.31803334 0.42707333 1.363 4290159791
-0.3165943 0.42864001 1.368 4288589252
-0.3139886 0.42864001 1.368 4287075746
-0.31138286 0.42864001 1.368 4286480000
-0.30877715 0.42864001 1.368 4285954690
-0.16993715 0.27009335 0.86200005 4281283897
-0.16829525 0.27009335 0.86200005 4281480497
-0.16626666 0.26946667 0.86000001 4281742634
-0.16462857 0.26946667 0.86000001 4282069807
-0.16299048 0.26946667 0.86000001 4282593844
-0.16135238 0.26946667 0.86000001 4283186240
-0.16138572 0.27228665 0.86900002 4283981132
-0.15973048 0.27228665 0.86900002 4284768084
-0.15843906 0.27291334 0.87100005 4285099613
-0.15678 0.27291334 0.87100005 4285492325
-0.15547715 0.27354002 0.87300003 4285688430
-0.15381429 0.27354002 0.87300003 4285885301
-0.15215144 0.27354002 0.87300003 4285821051
-0.15048857 0.27354002 0.87300003 4285755000
-0.14882571 0.27354002 0.87300003 4285558645
-0.14716287 0.27354002 0.87300003 4285362291
-0.19182858 0.46749336 1.4920001 4278781698
-0.18822667 0.46561334 1.4860001 4278651177
-0.18539621 0.46561334 1.4860001 4281749583
-0.18256572 0.46561334 1.4860001 4284898132
-0.17973526 0.46561334 1.4860001 4284832088
-0.17619048 0.46373335 1.48 4284765277
-0.17407429 0.46561334 1.4860001 4284960611
-0.1712438 0.46561334 1.4860001 4285159538
-0.16841334 0.46561334 1.4860001 4285621121
-0.16558285 0.46561334 1.4860001 4286081156
-0.16275239 0.46561334 1.4860001 4286410375
-0.1599219 0.46561334 1.4860001 4286807176
-0.15772572 0.46749336 1.4920001 4287925896
-0.15561049 0.46968669 1.4990001 4289038736
-0.15275525 0.46968669 1.4990001 4287260568
-0.07782381 0.4339667 1.3850001 4279907108
-0.075457148 0.43553334 1.3900001 4278256726
-0.072809525 0.43553334 1.3900001 4284423304
-0.070161909 0.43553334 1.3900001 4290694849
-0.067514293 0.43553334 1.3900001 4292804347
-0.064866677 0.43553334 1.3900001 4294901499
-0.062487617 0.43741333 1.396 4294901500
-0.059828572 0.43741333 1.396 4294901500
-0.057169523 0.43741333 1.396 4294901501
-0.054510474 0.43741333 1.396 4294901501
-0.051851429 0.43741333 1.396 4294901501
-0.04919238 0.43741333 1.396 4294901501
-0.046533335 0.43741333 1.396 4294901501
-0.043685716 0.43553334 1.3900001 4294901501
-0.0410381 0.43553334 1.3900001 4294901500
-0.038390476 0.43553334 1.3900001 4294901499
-0.035614289 0.4339667 1.3850001 4294901498
-0.033095241 0.43553334 1.3900001 4294901498
-0.030447621 0.43553334 1.3900001 4294835963
-0.027700003 0.4339667 1.3850001 4294835704
-0.025061907 0.4339667 1.3850001 4294834166
-0.022423811 0.4339667 1.3850001 4294901237
-0.019785715 0.4339667 1.3850001 4294901491
-0.01728381 0.43741333 1.396 4294901235
-0.014561906 0.43553334 1.3900001 4294835700
-0.011965714 0.43741333 1.396 4294835444
-0.0092666671 0.43553334 1.3900001 4294835189
-0.006647619 0.43741333 1.396 4294900981
-0.0039885715 0.43741333 1.396 4294900982
-0.0013295239 0.43741333 1.396 4294900982
0.0013295239 0.43741333 1.396 4294835191
0.0039885715 0.43741333 1.396 4294835182
0.006647619 0.43741333 1.396 4294570726
0.0093066664 0.43741333 1.396 4294374120
0.011914287 0.43553334 1.3900001 4294243051
0.014561906 0.43553334 1.3900001 4294176486
0.017209524 0.43553334 1.3900001 4294242273
0.019857144 0.43553334 1.3900001 4294373861
0.022504762 0.43553334 1.3900001 4294439912
0.025260951 0.43741333 1.396 4294571501
0.02792 0.43741333 1.396 4294571506
0.030579049 0.43741333 1.396 4294637299
0.033238098 0.43741333 1.396 4294637557
0.03605143 0.43929335 1.4020001 4294702832
0.038556192 0.43741333 1.396 4294768108
0.041215237 0.43741333 1.396 4294899947
0.043874286 0.43741333 1.396 4294704106
0.046533335 0.43741333 1.396 4294571745
0.048980955 0.43553334 1.3900001 4294306263
0.051628575 0.43553334 1.3900001 4294109134
0.054276194 0.43553334 1.3900001 4294108612
0.056923814 0.43553334 1.3900001 4294106804
0.05957143 0.43553334 1.3900001 4293842853
0.06221905 0.43553334 1.3900001 4293642671
0.064866677 0.43553334 1.3900001 4292131769
0.067271426 0.4339667 1.3850001 4290689719
0.069909528 0.4339667 1.3850001 4290558390
0.072233334 0.43208668 1.3790001 4290427572
0.074860007 0.43208668 1.3790001 4291017907
0.077486672 0.43208668 1.3790001 4291609537
0.080113336 0.43208668 1.3790001 4293053391
0.082740009 0.43208668 1.3790001 4294506214
0.0857381 0.4339667 1.3850001 4294704894
0.087993339 0.43208668 1.3790001 4294901502
0.091014296 0.4339667 1.3850001 4294901502
0.09365239 0.4339667 1.3850001 4294901502
0.096638106 0.43553334 1.3900001 4294901502
0.099285722 0.43553334 1.3900001 4294901502
0.10193334 0.43553334 1.3900001 4294901502
0.10458095 0.43553334 1.3900001 4294901502
0.10722858 0.43553334 1.3900001 4294901502
0.11035048 0.43741333 1.396 4294901502
0.11300953 0.43741333 1.396 4294901502
0.11566857 0.43741333 1.396 4294901502
0.11832762 0.43741333 1.396 4294901502
0.12098667 0.43741333 1.396 4294901502
0.12364572 0.43741333 1.396 4294901502
0.12630476 0.43741333 1.396 4294901502
0.12896381 0.43741333 1.396 4294901502
0.13162287 0.43741333 1.396 4294901502
0.1342819 0.43741333 1.396 4294901502
0.13694096 0.43741333 1.396 4294901502
0.13959999 0.43741333 1.396 4294901502
0.14225906 0.43741333 1.396 4294901502
0.1449181 0.43741333 1.396 4294901502
0.14694287 0.43553334 1.3900001 4294901502
0.14959048 0.43553334 1.3900001 4294901502
0.1522381 0.43553334 1.3900001 4294901502
0.15488572 0.43553334 1.3900001 4294901502
0.15821333 0.43741333 1.396 4294901502
0.16018097 0.43553334 1.3900001 4294901502
0.16353144 0.43741333 1.396 4294901502
0.16619048 0.43741333 1.396 4294901502
0.16884953 0.43741333 1.396 4294901502
0.17077143 0.43553334 1.3900001 4294901502
0.17416762 0.43741333 1.396 4294901502
0.17606668 0.43553334 1.3900001 4294901502
0.17871429 0.43553334 1.3900001 4294901502
0.18136191 0.43553334 1.3900001 4294901502
0.18400954 0.43553334 1.3900001 4294901502
0.18665716 0.43553334 1.3900001 4294901502
0.18930478 0.43553334 1.3900001 4294901502
0.19195239 0.43553334 1.3900001 4294901502
0.19460002 0.43553334 1.3900001 4294901502
0.19724764 0.43553334 1.3900001 4294901502
0.19989525 0.43553334 1.3900001 4294901502
0.20254287 0.43553334 1.3900001 4294901502
0.20607619 0.43741333 1.396 4294901502
0.20873523 0.43741333 1.396 4294901502
0.21048573 0.43553334 1.3900001 4294901502
0.21405335 0.43741333 1.396 4294901502
0.21578097 0.43553334 1.3900001 4294901502
0.2184286 0.43553334 1.3900001 4294901502
0.22107621 0.43553334 1.3900001 4294901502
0.22372383 0.43553334 1.3900001 4294901502
0.22637144 0.43553334 1.3900001 4294901502
0.22901906 0.43553334 1.3900001 4294901502
0.23166668 0.43553334 1.3900001 4294901502
0.23347144 0.4339667 1.3850001 4294901502
0.2342343 0.43052003 1.3740001 4294901502
0.23685144 0.43052003 1.3740001 4294901502
0.23946859 0.43052003 1.3740001 4294901458
0.24208573 0.43052003 1.3740001 4292433062
0.26233429 0.46154001 1.473 4290101180
0.26514 0.46154001 1.473 4292476114
0.26685432 0.45966002 1.4670001 4294901224
0.26964858 0.45966002 1.4670001 4294901502
0.27244288 0.45966002 1.4670001 4294901502
0.27523717 0.45966002 1.4670001 4294901502
0.27803144 0.45966002 1.4670001 4294901502
0.28082573 0.45966002 1.4670001 4294901502
0.28246 0.45778003 1.4610001 4294901502
0.2864143 0.45966002 1.4670001 4294901502
0.28802574 0.45778003 1.4610001 4294901502
0.29080859 0.45778003 1.4610001 4294901502
0.29359144 0.45778003 1.4610001 4294901502
0.29637429 0.45778003 1.4610001 4294901502
0.29915717 0.45778003 1.4610001 4294901502
0.30194002 0.45778003 1.4610001 4294901502
0.30472288 0.45778003 1.4610001 4294901502
0.30750573 0.45778003 1.4610001 4294901502
0.31028858 0.45778003 1.4610001 4294901502
0.31307143 0.45778003 1.4610001 4294901502
0.31585431 0.45778003 1.4610001 4294901500
0.31863716 0.45778003 1.4610001 4294901498
0.32274002 0.45966002 1.4670001 4294899449
0.32420287 0.45778003 1.4610001 4294105592
0.32832858 0.45966002 1.4670001 4293393146
0.33112288 0.45966002 1.4670001 4294115069
0.33391717 0.45966002 1.4670001 4294901501
0.33671144 0.45966002 1.4670001 4294901502
0.33950573 0.45966002 1.4670001 4294901502
0.34230003 0.45966002 1.4670001 4294901502
0.34650573 0.46154001 1.473 4294901238
0.34931144 0.46154001 1.473 4294042862
0.35211715 0.46154001 1.473 4293258471
0.35492286 0.46154001 1.473 4292927201
0.35942855 0.46373335 1.48 4292665320
0.36371619 0.46561334 1.4860001 4293124335
0.36654669 0.46561334 1.4860001 4293652725
0.37086859 0.46749336 1.4920001 4294245883
0.37546384 0.46968669 1.4990001 4294901500
0.37831905 0.46968669 1.4990001 4294901502
0.38117433 0.46968669 1.4990001 4294901502
0.38402954 0.46968669 1.4990001 4294901502
0.38688478 0.46968669 1.4990001 4294901502
0.38974002 0.46968669 1.4990001 4294901502
0.48480859 0.45966002 1.4670001 4285295714
0.48760289 0.45966002 1.4670001 4285099367
0.49039719 0.45966002 1.4670001 4284966755
0.49319148 0.45966002 1.4670001 4283123551
0.49598575 0.45966002 1.4670001 4281355634
0.49674001 0.45778003 1.4610001 4284249477
0.49952286 0.45778003 1.4610001 4287138192
-0.37810001 0.20963334 0.66500002 4287663247
-0.37740001 0.20994857 0.66600001 4287531918
-0.37669623 0.21026383 0.66700006 4287400332
-0.37655145 0.21089429 0.66900003 4287204235
-0.37808192 0.21247049 0.67400002 4287073672
-0.37735716 0.21278572 0.67500001 4286609797
-0.3755143 0.21247049 0.67400002 4286150016
-0.37478569 0.21278572 0.67500001 4286018683
-0.37350002 0.21278572 0.67500001 4285952886
-0.37221429 0.21278572 0.67500001 4285887090
-0.37972099 0.21782953 0.69100004 4285887088
-0.37840477 0.21782953 0.69100004 4285952622
-0.37818003 0.21846001 0.69300002 4286082675
-0.37685999 0.21846001 0.69300002 4285755513
-0.37554002 0.21846001 0.69300002 4285428072
-0.37476 0.21877524 0.69400001 4283917144
-0.37559047 0.22003619 0.69800001 4282406237
-0.37586954 0.22098191 0.70100003 4282734947
-0.37560284 0.22161239 0.70300001 4282998111
-0.37426382 0.22161239 0.70300001 4283129435
-0.37345526 0.22192763 0.70400006 4283261022
-0.37264287 0.22224286 0.70500004 4283457633
-0.37130001 0.22224286 0.70500004 4283654498
-0.4572905 0.36473048 1.1570001 4279769123
-0.45508671 0.36473048 1.1570001 4280032538
-0.45288289 0.36473048 1.1570001 4280097041
-0.45067906 0.36473048 1.1570001 4280096801
-0.44692475 0.36346951 1.153 4280163377
-0.44357145 0.36252382 1.1500001 4280294953
-0.44138098 0.36252382 1.1500001 4280557090
-0.43919051 0.36252382 1.1500001 4280885283
-0.43548 0.36126286 1.146 4280819493
-0.43329716 0.36126286 1.146 4280689706
-0.43111429 0.36126286 1.146 4280755504
-0.42893144 0.36126286 1.146 4280821306
-0.43680289 0.36977431 1.1730001 4280755780
-0.43456858 0.36977431 1.1730001 4280690234
-0.43233433 0.36977431 1.1730001 4280559152
-0.43010002 0.36977431 1.1730001 4280428334
-0.42640668 0.36851332 1.169 4280165677
-0.42418 0.36851332 1.169 4279900972
-0.42195335 0.36851332 1.169 4279505708
-0.41972667 0.36851332 1.169 4279110185
-0.41749999 0.36851332 1.169 4279044903
-0.41669431 0.36977431 1.1730001 4278978340
-0.41446003 0.36977431 1.1730001 4278914081
-0.41082001 0.36851332 1.169 4278914596
-0.40719527 0.36725241 1.1650001 4279046695
-0.40497622 0.36725241 1.1650001 4279178024
-0.40275717 0.36725241 1.1650001 4279243817
-0.40053812 0.36725241 1.1650001 4279309611
-0.39831907 0.36725241 1.1650001 4279506222
-0.39610001 0.36725241 1.1650001 4279703858
-0.39252856 0.36599144 1.161 4279966007
-0.38807619 0.42115813 1.3360001 4279440946
-0.38726285 0.42304951 1.342 4279376172
-0.38470668 0.42304951 1.342 4279245875
-0.38215047 0.42304951 1.342 4279640123
-0.3795943 0.42304951 1.342 4280034369
-0.37844291 0.42462575 1.3470001 4281216839
-0.37727243 0.42620191 1.3520001 4282399572
-0.37331146 0.42462575 1.3470001 4283390305
-0.36936954 0.42304951 1.342 4284441178
-0.36517337 0.42115813 1.3360001 4284575060
-0.36425713 0.42304951 1.342 4284708468
-0.36170095 0.42304951 1.342 4286088596
-0.35914475 0.42304951 1.342 4287534236
-0.34835148 0.41327718 1.3110001 4287796133
-0.34717336 0.41485336 1.3160001 4288058268
-0.34466669 0.41485336 1.3160001 4287399827
-0.34216002 0.41485336 1.3160001 4286807193
-0.33965334 0.41485336 1.3160001 4288518304
-0.3371467 0.41485336 1.3160001 4290234283
-0.33464003 0.41485336 1.3160001 4289901751
-0.33339527 0.41642955 1.3210001 4289573048
-0.33087906 0.41642955 1.3210001 4289770426
-0.32836288 0.41642955 1.3210001 4290032835
-0.3258467 0.41642955 1.3210001 4289247693
-0.32333052 0.41642955 1.3210001 4288523426
-0.32202861 0.41800573 1.3260001 4287332472
-0.32191241 0.42115813 1.3360001 4286151032
