# .PCD v0.7 - Point Cloud Data file format
VERSION 0.7
FIELDS x y z rgba
SIZE 4 4 4 4
TYPE F F F U
COUNT 1 1 1 1
WIDTH 1076
HEIGHT 1
VIEWPOINT 0 0 0 1 0 0 0
POINTS 1076
DATA ascii
-0.22895715 0.23298572 0.70500004 4291743388
-0.2276143 0.23298572 0.70500004 4291676824
-0.22691333 0.23364668 0.70700002 4291610259
-0.22492859 0.23298572 0.70500004 4291741839
-0.22358572 0.23298572 0.70500004 4291807885
-0.22318858 0.23397714 0.708 4291873420
-0.22246668 0.23463811 0.71000004 4291873424
-0.22111429 0.23463811 0.71000004 4291872149
-0.21976192 0.23463811 0.71000004 4291941271
-0.21840954 0.23463811 0.71000004 4287733913
-0.21828002 0.23596001 0.71400005 4283587149
-0.21661621 0.23562954 0.71300006 4282451201
-0.21525811 0.23562954 0.71300006 4281413638
-0.18866573 0.22042763 0.66700006 4289767964
-0.18711428 0.22009714 0.66600001 4284037899
-0.18612477 0.22042763 0.66700006 4278321414
-0.18457714 0.22009714 0.66600001 4279570177
-0.18330857 0.22009714 0.66600001 4280823062
-0.18203999 0.22009714 0.66600001 4281151019
-0.18077143 0.22009714 0.66600001 4281544496
-0.17950284 0.22009714 0.66600001 4281348150
-0.19370002 0.24620478 0.74500006 4280955170
-0.19176477 0.24554382 0.74300003 4281216562
-0.19009334 0.24521336 0.74200004 4281478191
-0.18868001 0.24521336 0.74200004 4281347117
-0.18676192 0.24455237 0.74000001 4281150759
-0.18535237 0.24455237 0.74000001 4280953889
-0.18319716 0.24356097 0.73700005 4280756768
-0.18228666 0.24422191 0.73900002 4280362528
-0.18087906 0.24422191 0.73900002 4279966489
-0.17898573 0.24356097 0.73700005 4279702546
-0.17758192 0.24356097 0.73700005 4279505418
-0.17617811 0.24356097 0.73700005 4279374082
-0.17524858 0.24422191 0.73900002 4279177475
-0.17384095 0.24422191 0.73900002 4279111172
-0.14464286 0.22307143 0.67500001 4278915847
-0.14272001 0.22208002 0.67200005 4279046149
-0.14122953 0.22174953 0.671 4279242244
-0.13974287 0.22141905 0.67000002 4279307780
-0.13826001 0.22108857 0.66900003 4279373317
-0.13698572 0.22108857 0.66900003 4279045383
-0.13408858 0.21844476 0.66100001 4278782468
-0.13262857 0.21811429 0.66000003 4278913794
-0.13097335 0.21745335 0.65800005 4279110659
-0.12952286 0.21712285 0.65700001 4278979589
-0.1280762 0.21679237 0.65600002 4278849796
-0.12586001 0.21514 0.65100002 4279046660
-0.12404571 0.21414857 0.648 4279310596
-0.12262191 0.21381809 0.64700001 4279441156
-0.12138952 0.21381809 0.64700001 4279571717
-0.11978572 0.21315716 0.64500004 4279899143
-0.11837334 0.21282668 0.64400005 4280161284
-0.11678286 0.21216571 0.64200002 4279570689
-0.11538001 0.21183525 0.64100003 4278980098
-0.11398096 0.21150477 0.64000005 4279110659
-0.11258572 0.21117429 0.63900006 4279307269
-0.11119429 0.2108438 0.63800001 4279241991
-0.10963429 0.21018288 0.63600004 4279242248
-0.10825239 0.2098524 0.63500005 4279176970
-0.10704286 0.2098524 0.63500005 4279177478
-0.10566666 0.2095219 0.634 4279637250
-0.10429429 0.20919143 0.63300002 4280162819
-0.10308857 0.20919143 0.63300002 4279637509
-0.10172191 0.20886096 0.63200003 4279176195
-0.10035905 0.20853049 0.63100004 4280683009
-0.098842859 0.20786951 0.62900001 4282139190
-0.097489528 0.20753905 0.62800002 4284180076
-0.096140005 0.20720859 0.62700003 4286284908
-0.094794288 0.20687811 0.62600005 4285819500
-0.093452379 0.20654762 0.625 4285360220
-0.092114285 0.20621714 0.62400001 4285227597
-0.090779997 0.20588668 0.62300003 4285094979
-0.089449525 0.2055562 0.62200004 4284832825
-0.088264771 0.2055562 0.62200004 4284570420
-0.087080002 0.2055562 0.62200004 4284308015
-0.08589524 0.2055562 0.62200004 4284045873
-0.084710479 0.2055562 0.62200004 4283580723
-0.083659999 0.20588668 0.62300003 4283121709
-0.082738094 0.20654762 0.625 4283056168
-0.081939049 0.20753905 0.62800002 4282925352
-0.081128575 0.20853049 0.63100004 4282662953
-0.080053337 0.20886096 0.63200003 4282400293
-0.079099044 0.2095219 0.634 4281810465
-0.078137144 0.21018288 0.63600004 4281284893
-0.077288575 0.21117429 0.63900006 4280159769
-0.076190479 0.21150477 0.64000005 4279110925
-0.075088575 0.21183525 0.64100003 4279111937
-0.073982857 0.21216571 0.64200002 4279112706
-0.073100001 0.21315716 0.64500004 4279112451
-0.071982861 0.21348763 0.64600003 4279112194
-0.070971422 0.21414857 0.648 4279111938
-0.069737144 0.21414857 0.648 4279046402
-0.068714283 0.21480954 0.65000004 4279111427
-0.067476198 0.21480954 0.65000004 4279242243
-0.066238098 0.21480954 0.65000004 4279307780
-0.071900003 0.2376124 0.71900004 4279438850
-0.070530482 0.2376124 0.71900004 4279308033
-0.069160953 0.2376124 0.71900004 4279243018
-0.067791432 0.2376124 0.71900004 4279177491
-0.066421911 0.2376124 0.71900004 4279177994
-0.065052383 0.2376124 0.71900004 4279112449
-0.063505717 0.23695143 0.71700001 4279047425
-0.06205333 0.23662096 0.71600002 4279047169
-0.060520004 0.23596001 0.71400005 4279047169
-0.059160002 0.23596001 0.71400005 4278981889
-0.057719052 0.23562954 0.71300006 4278981891
-0.056360956 0.23562954 0.71300006 4279112709
-0.055002861 0.23562954 0.71300006 4279177739
-0.053720001 0.23596001 0.71400005 4279177745
-0.052360002 0.23596001 0.71400005 4279177993
-0.051142856 0.23662096 0.71600002 4279047170
-0.049848571 0.23695143 0.71700001 4278981891
-0.04841524 0.23662096 0.71600002 4279112709
-0.04705143 0.23662096 0.71600002 4279309324
-0.04568762 0.23662096 0.71600002 4279178004
-0.044385713 0.23695143 0.71700001 4279046667
-0.042960003 0.23662096 0.71600002 4279112451
-0.041596193 0.23662096 0.71600002 4279244547
-0.040288571 0.23695143 0.71700001 4279046915
-0.039031431 0.2376124 0.71900004 4278850057
-0.037661906 0.2376124 0.71900004 4278981136
-0.036191426 0.23695143 0.71700001 4279046666
-0.034825716 0.23695143 0.71700001 4279242757
-0.033413332 0.23662096 0.71600002 4279373573
-0.032094285 0.23695143 0.71700001 4279177221
-0.030728571 0.23695143 0.71700001 4278981892
-0.014357143 0.19927715 0.60300004 4281160475
-0.013186668 0.19894667 0.60200006 4280963631
-0.012040001 0.19894667 0.60200006 4280701212
-0.010893334 0.19894667 0.60200006 4281159177
-0.0097466679 0.19894667 0.60200006 4281551639
-0.0086000003 0.19894667 0.60200006 4281027110
-0.0074409526 0.19861619 0.60100001 4280502805
-0.0062857145 0.19828573 0.60000002 4280962308
-0.0051428573 0.19828573 0.60000002 4281421841
-0.0040066671 0.19861619 0.60100001 4280896798
-0.0028619049 0.19861619 0.60100001 4280437520
-0.0017142858 0.19828573 0.60000002 4280895747
-0.00057142857 0.19828573 0.60000002 4281419798
0.00057238096 0.19861619 0.60100001 4281025834
0.0017171428 0.19861619 0.60100001 4280631830
0.0028619049 0.19861619 0.60100001 4280829187
0.0040066671 0.19861619 0.60100001 4281092355
0.0051600006 0.19894667 0.60200006 4281219331
0.0063066673 0.19894667 0.60200006 4281346570
0.0074533341 0.19894667 0.60200006 4281343506
0.0086000003 0.19894667 0.60200006 4281274897
0.0097466679 0.19894667 0.60200006 4281145360
0.010911429 0.19927715 0.60300004 4281015825
0.012040001 0.19894667 0.60200006 4281015826
0.013208573 0.19927715 0.60300004 4281015827
0.014357143 0.19927715 0.60300004 4280424981
0.015505716 0.19927715 0.60300004 4279834135
0.016654287 0.19927715 0.60300004 4280358169
0.017832382 0.19960763 0.60400003 4280947985
0.018982857 0.19960763 0.60400003 4280619785
0.020166667 0.1999381 0.60500002 4280357128
0.021319048 0.1999381 0.60500002 4280291848
0.022434287 0.19960763 0.60400003 4280292364
0.023623809 0.1999381 0.60500002 4280030224
0.024817143 0.20026857 0.60600001 4279768339
0.025971429 0.20026857 0.60600001 4280030230
0.027125714 0.20026857 0.60600001 4280357649
0.028279999 0.20026857 0.60600001 4280160780
0.029434286 0.20026857 0.60600001 4279962374
0.030588571 0.20026857 0.60600001 4279701505
0.031795241 0.20059906 0.60700005 4279506445
0.032951429 0.20059906 0.60700005 4279505689
0.03416381 0.20092954 0.60800004 4279439639
0.035263814 0.20059906 0.60700005 4280030997
0.036480002 0.20092954 0.60800004 4280622613
0.037638098 0.20092954 0.60800004 4280620310
0.038796194 0.20092954 0.60800004 4280618004
0.040020004 0.20126002 0.60900003 4280554771
0.041315239 0.20192094 0.611 4280491022
0.042479049 0.20192094 0.611 4280689161
0.043642856 0.20192094 0.611 4280952842
0.044880003 0.20225143 0.61200005 4280953356
0.045970477 0.20192094 0.611 4280953866
0.047211431 0.20225143 0.61200005 4280822537
0.048456192 0.20258191 0.61300004 4280691467
0.049704764 0.20291239 0.61400002 4280756238
0.050874289 0.20291239 0.61400002 4280886563
0.052043814 0.20291239 0.61400002 4280887352
0.053213332 0.20291239 0.61400002 4280959007
0.054471429 0.20324285 0.61500001 4280824582
0.055642854 0.20324285 0.61500001 4280690440
0.05699905 0.20390382 0.61700004 4281082378
0.05817429 0.20390382 0.61700004 4281474566
0.059445716 0.2042343 0.61800003 4280884995
0.06062286 0.2042343 0.61800003 4280295682
0.061900001 0.20456477 0.61900002 4280294913
0.063180953 0.20489523 0.62 4280359685
0.064361908 0.20489523 0.62 4280033802
0.065542854 0.20489523 0.62 4279772166
0.066939048 0.2055562 0.62200004 4279968514
0.068233334 0.20588668 0.62300003 4280165130
0.069531433 0.20621714 0.62400001 4280165139
0.070946671 0.20687811 0.62600005 4280165149
0.072254293 0.20720859 0.62700003 4280558887
0.073448576 0.20720859 0.62700003 4280952856
0.074761905 0.20753905 0.62800002 4280754954
0.075958095 0.20753905 0.62800002 4280557066
0.077277139 0.20786951 0.62900001 4280425994
0.078475237 0.20786951 0.62900001 4280360471
0.079673328 0.20786951 0.62900001 4280556837
0.080871426 0.20786951 0.62900001 4280753428
0.082069524 0.20786951 0.62900001 4280557316
0.083532386 0.20853049 0.63100004 4280359177
0.085137136 0.2095219 0.634 4280032783
0.08648096 0.2098524 0.63500005 4279770640
0.08769048 0.2098524 0.63500005 4280032529
0.089320004 0.2108438 0.63800001 4280296737
0.09067715 0.21117429 0.63900006 4280296497
0.092181914 0.21183525 0.64100003 4280361763
0.093402863 0.21183525 0.64100003 4280229909
0.09477143 0.21216571 0.64200002 4280163611
0.096293338 0.21282668 0.64400005 4279901218
0.09782286 0.21348763 0.64600003 4279704348
0.099206664 0.21381809 0.64700001 4279967767
0.10059428 0.21414857 0.648 4280296732
0.10214286 0.21480954 0.65000004 4279969570
0.10354 0.21514 0.65100002 4279642385
0.10478 0.21514 0.65100002 4278913281
0.10618286 0.21547048 0.65200001 4278255937
0.10791905 0.21646191 0.65500003 4283849857
0.1095 0.21712285 0.65700001 4289450164
0.11125715 0.21811429 0.66000003 4292080359
0.11336667 0.21976666 0.66500002 4294704859
0.1141162 0.21877526 0.66200006 4294770128
0.1159 0.21976666 0.66500002 4294834400
0.11734285 0.22009714 0.66600001 4294835952
0.11861143 0.22009714 0.66600001 4294901452
0.12042 0.22108857 0.66900003 4291286184
0.36316288 0.48282576 1.4610001 4279701542
0.3674486 0.48480859 1.4670001 4278848533
0.36872858 0.48282576 1.4610001 4278585860
0.37303716 0.48480859 1.4670001 4278388994
0.37583145 0.48480859 1.4670001 4278388481
0.37862575 0.48480859 1.4670001 4278388225
0.19630286 0.19630286 0.59400004 4278388993
0.19710192 0.19597238 0.59300005 4278322689
0.19789715 0.19564191 0.59200001 4278256897
0.19868857 0.19531144 0.59100002 4278322177
0.1994762 0.19498096 0.59000003 4278321921
0.2006 0.19498096 0.59000003 4278322177
0.20138192 0.19465049 0.58900005 4278322945
0.20250382 0.19465049 0.58900005 4278322689
0.20362574 0.19465049 0.58900005 4278322177
0.20474763 0.19465049 0.58900005 4278321921
0.20552 0.19431999 0.588 4278321921
0.20664001 0.19431999 0.588 4278387457
0.20775999 0.19431999 0.588 4278518530
0.20852476 0.19398953 0.58700001 4278387459
0.20857143 0.1929981 0.58400005 4278256642
0.20932476 0.19266762 0.583 4278387713
0.21007429 0.19233716 0.58200002 4278518785
0.21082 0.19200668 0.58100003 4278452737
0.21156192 0.1916762 0.58000004 4278387201
0.21266668 0.1916762 0.58000004 4278452993
0.21340288 0.19134574 0.57900006 4278584065
0.21413524 0.19101524 0.57800001 4278387714
0.21486382 0.19068477 0.57700002 4278256897
0.21596286 0.19068477 0.57700002 4278256641
0.21668573 0.19035429 0.57600003 4278256641
0.21778287 0.19035429 0.57600003 4278256642
0.21888001 0.19035429 0.57600003 4278256385
0.21959525 0.19002381 0.57500005 4278256385
0.2210743 0.19035429 0.57600003 4278321921
0.22178572 0.19002381 0.57500005 4278387201
0.22288097 0.19002381 0.57500005 4278452737
0.22397621 0.19002381 0.57500005 4278387713
0.22428857 0.18936287 0.57300001 4278322689
0.22498667 0.18903239 0.57200003 4278257153
0.22607619 0.18903239 0.57200003 4278257153
0.22676858 0.18870191 0.57100004 4278256897
0.22745715 0.18837145 0.57000005 4278256641
0.2281419 0.18804096 0.56900001 4278256385
0.22882286 0.18771048 0.56800002 4278321923
0.22990477 0.18771048 0.56800002 4278387462
0.23058 0.18738 0.56700003 4278453252
0.23084284 0.18671905 0.565 4278321923
0.23191905 0.18671905 0.565 4278256644
0.23299524 0.18671905 0.565 4278257158
0.23282859 0.18572763 0.56200004 4278323459
0.23348288 0.18539716 0.56100005 4278257665
0.23455144 0.18539716 0.56100005 4278257409
0.23478001 0.18473619 0.55900002 4278322689
0.23584476 0.18473619 0.55900002 4278387713
0.23648572 0.18440571 0.55800003 4278322177
0.23712288 0.18407524 0.55700004 4278322177
0.23732857 0.1834143 0.55500001 4278256641
0.23838572 0.1834143 0.55500001 4278257409
0.23901144 0.18308382 0.55400002 4278256897
0.24006668 0.18308382 0.55400002 4278257153
0.24068667 0.18275334 0.55300003 4278256897
0.24130288 0.18242288 0.55200005 4278322945
0.24191524 0.18209238 0.551 4278322433
0.24296476 0.18209238 0.551 4278321921
0.24357143 0.18176191 0.55000001 4278322177
0.2441743 0.18143143 0.54900002 4278256641
0.24477336 0.18110095 0.54800004 4278256641
0.24581717 0.18110095 0.54800004 4278257153
0.24686097 0.18110095 0.54800004 4278256385
0.24790478 0.18110095 0.54800004 4278321922
0.24849431 0.1807705 0.54700005 4278256387
0.24907999 0.18044001 0.546 4278256642
0.25012001 0.18044001 0.546 4278256641
0.24978001 0.17944859 0.54300004 4278257409
0.25035241 0.17911811 0.54200006 4278322945
0.25092095 0.17878762 0.54100001 4278388481
0.25195143 0.17878762 0.54100001 4278322945
0.2529819 0.17878762 0.54100001 4278257409
0.25354287 0.17845714 0.54000002 4278256641
0.25457144 0.17845714 0.54000002 4278256641
0.25512668 0.17812666 0.53900003 4278256897
0.25567812 0.17779621 0.53800005 4278257921
0.25622571 0.17746572 0.537 4278257409
0.25724855 0.17746572 0.537 4278257153
0.25779048 0.17713524 0.53600001 4278256641
0.25881144 0.17713524 0.53600001 4278256129
0.25983238 0.17713524 0.53600001 4278256385
0.25988001 0.1764743 0.53400004 4278257409
0.26040858 0.17614383 0.53300005 4278256897
0.26093334 0.17581333 0.53200001 4278256641
0.26194668 0.17581333 0.53200001 4278256385
0.26295999 0.17581333 0.53200001 4278256385
0.26397333 0.17581333 0.53200001 4278256897
0.26448858 0.17548285 0.53100002 4278257409
0.26500002 0.17515238 0.53000003 4278256641
0.26600954 0.17515238 0.53000003 4278256641
0.26701906 0.17515238 0.53000003 4278256641
0.26802859 0.17515238 0.53000003 4278256897
0.26903811 0.17515238 0.53000003 4278256641
0.27004763 0.17515238 0.53000003 4278256641
0.27054575 0.17482193 0.52900004 4278256641
0.27052668 0.17416096 0.52700001 4278256641
0.27153048 0.17416096 0.52700001 4278256641
0.27253428 0.17416096 0.52700001 4278257153
0.27353808 0.17416096 0.52700001 4278257153
0.27402097 0.17383048 0.52600002 4278257409
0.27502286 0.17383048 0.52600002 4278256897
0.27602479 0.17383048 0.52600002 4278322177
0.27702668 0.17383048 0.52600002 4278387714
0.27750003 0.17350002 0.52500004 4278387713
0.27850002 0.17350002 0.52500004 4278387457
0.27896762 0.17316954 0.52400005 4278321921
0.27996573 0.17316954 0.52400005 4278321921
0.28096384 0.17316954 0.52400005 4278321923
0.28142381 0.17283905 0.523 4278321925
0.28242001 0.17283905 0.523 4278387203
-0.3931686 0.23698764 0.71300006 4280619044
-0.39181051 0.23698764 0.71300006 4280162069
-0.38935715 0.23632286 0.71100003 4280032773
-0.38800287 0.23632286 0.71100003 4279966996
-0.38773623 0.23698764 0.71300006 4279904803
-0.38637811 0.23698764 0.71300006 4279838492
-0.38502002 0.23698764 0.71300006 4279243540
-0.38366193 0.23698764 0.71300006 4278653456
-0.38123143 0.23632286 0.71100003 4279374092
-0.38094574 0.23698764 0.71300006 4280161040
-0.37958765 0.23698764 0.71300006 4279637524
-0.37822953 0.23698764 0.71300006 4279177743
-0.37687144 0.23698764 0.71300006 4279638794
-0.37762001 0.23831715 0.71700001 4280162570
-0.37625429 0.23831715 0.71700001 4279310090
-0.3759343 0.23898192 0.71900004 4278458128
-0.3745648 0.23898192 0.71900004 4279179030
-0.37215716 0.23831715 0.71700001 4279966229
-0.37182572 0.23898192 0.71900004 4279442964
-0.37045622 0.23898192 0.71900004 4278983698
-0.36806002 0.23831715 0.71700001 4279573265
-0.36669427 0.23831715 0.71700001 4280228111
-0.36634761 0.23898192 0.71900004 4280162317
-0.3649781 0.23898192 0.71900004 4280098583
-0.36411428 0.2393143 0.72000003 4280493602
-0.36274287 0.2393143 0.72000003 4280952099
-0.36086956 0.23898192 0.71900004 4280886308
-0.35999998 0.2393143 0.72000003 4280823072
-0.35962477 0.23997907 0.72200006 4281087773
-0.35824955 0.23997907 0.72200006 4281349403
-0.35687429 0.23997907 0.72200006 4281283354
-0.35599145 0.24031144 0.72300005 4281216796
-0.35559523 0.2409762 0.72500002 4281477918
-0.35421431 0.2409762 0.72500002 4281740328
-0.35283333 0.2409762 0.72500002 4281806385
-0.35145241 0.2409762 0.72500002 4281871926
-0.34910575 0.24031144 0.72300005 4281937723
-0.34772858 0.24031144 0.72300005 4282004026
-0.34587243 0.23997907 0.72200006 4282332729
-0.34449717 0.23997907 0.72200006 4282660669
-0.34312195 0.23997907 0.72200006 4282660928
-0.34222001 0.24031144 0.72300005 4282726211
-0.34084287 0.24031144 0.72300005 4282660422
-0.33946574 0.24031144 0.72300005 4282661443
-0.33808857 0.24031144 0.72300005 4282793793
-0.33810857 0.24130857 0.72600001 4282925889
-0.33672571 0.24130857 0.72600001 4283253825
-0.33534285 0.24130857 0.72600001 4283581512
-0.33258 0.24031144 0.72300005 4283450704
-0.33120289 0.24031144 0.72300005 4283385166
-0.33073813 0.2409762 0.72500002 4283319629
-0.32844859 0.24031144 0.72300005 4283319371
-0.3279762 0.2409762 0.72500002 4283319114
-0.32569432 0.24031144 0.72300005 4283319110
-0.32431716 0.24031144 0.72300005 4283255105
-0.32651332 0.24297048 0.73100001 4283190338
-0.32512096 0.24297048 0.73100001 4283388226
-0.32417145 0.24330287 0.73200005 4283650373
-0.3223362 0.24297048 0.73100001 4283453768
-0.32006571 0.24230571 0.72900003 4283256394
-0.31867716 0.24230571 0.72900003 4283321421
-0.31685334 0.24197336 0.72800004 4283452493
-0.31546667 0.24197336 0.72800004 4283518541
-0.30933428 0.23831715 0.71700001 4283649868
-0.30796859 0.23831715 0.71700001 4283584844
-0.30660287 0.23831715 0.71700001 4283585103
-0.30523714 0.23831715 0.71700001 4283323219
-0.30514288 0.2393143 0.72000003 4283060305
-0.30377144 0.2393143 0.72000003 4283256910
-0.30324003 0.23997907 0.72200006 4283452227
-0.30604574 0.24330287 0.73200005 4283386425
-0.30465147 0.24330287 0.73200005 4283387205
-0.30284286 0.24297048 0.73100001 4283453265
-0.30145049 0.24297048 0.73100001 4283519059
-0.29923713 0.24230571 0.72900003 4283388501
-0.29744002 0.24197336 0.72800004 4283257173
-0.29605335 0.24197336 0.72800004 4283453782
-0.29466668 0.24197336 0.72800004 4283716939
-0.29247427 0.24130857 0.72600001 4283717953
-0.29069048 0.2409762 0.72500002 4283717707
-0.28970855 0.24130857 0.72600001 4283783252
-0.28832573 0.24130857 0.72600001 4283848533
-0.28694287 0.24130857 0.72600001 4283849301
-0.28556001 0.24130857 0.72600001 4283848790
-0.28496 0.24197336 0.72800004 4283914327
-0.28279427 0.24130857 0.72600001 4283980121
-0.28141141 0.24130857 0.72600001 4283914843
-0.28002858 0.24130857 0.72600001 4283849299
-0.28056479 0.24297048 0.73100001 4283849292
-0.27840859 0.24230571 0.72900003 4283849292
-0.27778 0.24297048 0.73100001 4283783756
-0.2763876 0.24297048 0.73100001 4283782988
-0.27537143 0.24330287 0.73200005 4283652428
-0.27397716 0.24330287 0.73200005 4283586894
-0.27258286 0.24330287 0.73200005 4283521360
-0.27192953 0.24396764 0.73400003 4283455824
-0.26979432 0.24330287 0.73200005 4283521615
-0.26913333 0.24396764 0.73400003 4283652695
-0.26700574 0.24330287 0.73200005 4283784030
-0.26633716 0.24396764 0.73400003 4283914582
-0.26493904 0.24396764 0.73400003 4283652175
-0.26282287 0.24330287 0.73200005 4283455566
-0.26214287 0.24396764 0.73400003 4283455565
-0.26074478 0.24396764 0.73400003 4283455827
-0.25934666 0.24396764 0.73400003 4283521881
-0.25794858 0.24396764 0.73400003 4283584833
-0.22964667 0.23366381 0.70300001 4292068766
-0.22765811 0.23299906 0.70100003 4291610519
-0.22696857 0.23366381 0.70300001 4291475088
-0.22595049 0.2339962 0.70400006 4291347090
-0.22429048 0.23366381 0.70300001 4291543444
-0.22295143 0.23366381 0.70300001 4291742095
-0.22192763 0.2339962 0.70400006 4291808907
-0.22152668 0.23499334 0.70700002 4291873685
-0.21955715 0.23432858 0.70500004 4291610784
-0.2182143 0.23432858 0.70500004 4291415940
-0.2147181 0.2320019 0.69800001 4284967016
-0.21338856 0.2320019 0.69800001 4278595146
-0.21175523 0.23166953 0.69700003 4281532715
-0.21042763 0.23166953 0.69700003 4284573222
-0.20910001 0.23166953 0.69700003 4289578273
-0.18936667 0.22103333 0.66500002 4292859951
-0.1881 0.22103333 0.66500002 4292200475
-0.18683334 0.22103333 0.66500002 4285231880
-0.18584572 0.22136572 0.66600001 4278255876
-0.18457714 0.22136572 0.66600001 4279503105
-0.18330857 0.22136572 0.66600001 4280755473
-0.18176667 0.22103333 0.66500002 4281019938
-0.1805 0.22103333 0.66500002 4281282088
-0.17923334 0.22103333 0.66500002 4281151791
-0.19150668 0.24662668 0.74200004 4281478705
-0.18958095 0.2459619 0.74000001 4281805615
-0.18791714 0.24562953 0.73900002 4281478189
-0.18600477 0.24496478 0.73700005 4281216297
-0.18435049 0.24463239 0.73600006 4280888869
-0.18245143 0.24396764 0.73400003 4280559906
-0.18154669 0.24463239 0.73600006 4280165664
-0.18038954 0.24496478 0.73700005 4279834652
-0.17874287 0.24463239 0.73600006 4279637016
-0.17734095 0.24463239 0.73600006 4279505421
-0.17593907 0.24463239 0.73600006 4279243522
-0.17453715 0.24463239 0.73600006 4278980867
-0.17384095 0.24562953 0.73900002 4278784260
-0.14614478 0.22468954 0.67600006 4278784262
-0.14485715 0.22468954 0.67600006 4278718726
-0.14272001 0.22336002 0.67200005 4278915334
-0.14122953 0.22302762 0.671 4279176969
-0.13974287 0.22269523 0.67000002 4279307788
-0.13826001 0.22236286 0.66900003 4279504392
-0.13616668 0.22103333 0.66500002 4279307780
-0.13429144 0.22003621 0.66200006 4279111427
-0.13262857 0.21937144 0.66000003 4279111939
-0.13097335 0.21870668 0.65800005 4279110915
-0.12952286 0.21837428 0.65700001 4278717956
-0.1280762 0.2180419 0.65600002 4278390787
-0.12605333 0.21671239 0.65200001 4278785282
-0.12442858 0.21604763 0.65000004 4279244550
-0.12262191 0.21505049 0.64700001 4279639562
-0.12138952 0.21505049 0.64700001 4280097046
-0.11978572 0.21438572 0.64500004 4280693026
-0.11837334 0.21405335 0.64400005 4281279508
-0.11714668 0.21405335 0.64400005 4280293127
-0.11538001 0.21305621 0.64100003 4279307013
-0.11398096 0.21272382 0.64000005 4279241730
-0.11276191 0.21272382 0.64000005 4279176195
-0.11136858 0.21239144 0.63900006 4279044612
-0.10963429 0.2113943 0.63600004 4278979847
-0.10825239 0.21106192 0.63500005 4278717963
-0.10704286 0.21106192 0.63500005 4278521350
-0.10566666 0.21072952 0.634 4278914561
-0.10429429 0.21039715 0.63300002 4279374851
-0.10308857 0.21039715 0.63300002 4279046916
-0.10172191 0.21006477 0.63200003 4278719234
-0.10035905 0.20973238 0.63100004 4280947457
-0.098842859 0.20906761 0.62900001 4283187763
-0.097489528 0.20873524 0.62800002 4284639845
-0.096140005 0.20840287 0.62700003 4286081379
-0.094642855 0.20773809 0.625 4285688162
-0.093452379 0.20773809 0.625 4285294166
-0.092114285 0.20740572 0.62400001 4285162571
-0.090779997 0.20707333 0.62300003 4285030211
-0.089449525 0.20674096 0.62200004 4284898620
-0.088264771 0.20674096 0.62200004 4284766774
-0.087080002 0.20674096 0.62200004 4284504880
-0.08589524 0.20674096 0.62200004 4284308021
-0.084710479 0.20674096 0.62200004 4283974714
-0.083659999 0.20707333 0.62300003 4283647283
-0.082870483 0.20807049 0.62600005 4283385389
-0.081939049 0.20873524 0.62800002 4283188269
-0.08125715 0.21006477 0.63200003 4282729261
-0.080180004 0.21039715 0.63300002 4282334759
-0.079099044 0.21072952 0.634 4281679648
-0.078137144 0.2113943 0.63600004 4281022237
-0.077288575 0.21239144 0.63900006 4279767578
-0.076190479 0.21272382 0.64000005 4278586382
-0.075088575 0.21305621 0.64100003 4278785026
-0.074213333 0.21405335 0.64400005 4278981638
-0.073100001 0.21438572 0.64500004 4279046410
-0.072094291 0.21505049 0.64700001 4279111942
-0.070971422 0.21538286 0.648 4279046402
-0.069737144 0.21538286 0.648 4279046402
-0.068714283 0.21604763 0.65000004 4279176706
-0.067476198 0.21604763 0.65000004 4279373314
-0.066340007 0.21638 0.65100002 4279373827
-0.065099999 0.21638 0.65100002 4279373826
-0.070530482 0.23898192 0.71900004 4279242753
-0.069160953 0.23898192 0.71900004 4279177478
-0.067791432 0.23898192 0.71900004 4279177740
-0.066237144 0.23831715 0.71700001 4279243270
-0.064871423 0.23831715 0.71700001 4279243777
-0.063240007 0.23732002 0.71400005 4279309314
-0.061793335 0.23698764 0.71300006 4279244803
-0.060435243 0.23698764 0.71300006 4279244290
-0.059077147 0.23698764 0.71300006 4279178497
-0.057557143 0.23632286 0.71100003 4279178242
-0.056123812 0.23599048 0.71000004 4279177987
-0.054771431 0.23599048 0.71000004 4279177734
-0.053644765 0.23698764 0.71300006 4279177737
-0.052360002 0.23732002 0.71400005 4279243781
-0.051000003 0.23732002 0.71400005 4279112962
-0.04977905 0.23798476 0.71600002 4278982146
-0.048212387 0.23698764 0.71300006 4279179011
-0.046920002 0.23732002 0.71400005 4279374855
-0.045496192 0.23698764 0.71300006 4279112716
-0.0441381 0.23698764 0.71300006 4278916103
-0.04284 0.23732002 0.71400005 4279047170
-0.041480005 0.23732002 0.71400005 4279243522
-0.040063813 0.23698764 0.71300006 4279046658
-0.038760003 0.23732002 0.71400005 4278915847
-0.037400004 0.23732002 0.71400005 4278916364
-0.036040001 0.23732002 0.71400005 4278981383
-0.034680001 0.23732002 0.71400005 4279046403
-0.033320002 0.23732002 0.71400005 4279112195
-0.031960003 0.23732002 0.71400005 4278981380
-0.0306 0.23732002 0.71400005 4278915589
-0.029240001 0.23732002 0.71400005 4278850054
-0.014357143 0.20042573 0.60300004 4278850833
-0.013208573 0.20042573 0.60300004 4279114776
-0.012060001 0.20042573 0.60300004 4279374867
-0.010893334 0.20009336 0.60200006 4279635215
-0.0097466679 0.20009336 0.60200006 4279897365
-0.0086142868 0.20042573 0.60300004 4279504156
-0.0074409526 0.19976096 0.60100001 4279176977
-0.0062857145 0.19942857 0.60000002 4279374342
-0.0051428573 0.19942857 0.60000002 4279570957
-0.0040066671 0.19976096 0.60100001 4279374355
-0.0028619049 0.19976096 0.60100001 4279177482
-0.0017171428 0.19976096 0.60100001 4279373826
-0.00057142857 0.19942857 0.60000002 4279570446
0.00057238096 0.19976096 0.60100001 4279504923
0.0017171428 0.19976096 0.60100001 4279505679
0.0028619049 0.19976096 0.60100001 4279637507
0.0040133335 0.20009336 0.60200006 4279768322
0.0051600006 0.20009336 0.60200006 4279178242
0.0063066673 0.20009336 0.60200006 4278653703
0.0074533341 0.20009336 0.60200006 4278719245
0.0086000003 0.20009336 0.60200006 4278784522
0.0097466679 0.20009336 0.60200006 4278784520
0.010911429 0.20042573 0.60300004 4278850059
0.012040001 0.20009336 0.60200006 4278784782
0.013208573 0.20042573 0.60300004 4278722575
0.014357143 0.20042573 0.60300004 4278524432
0.015505716 0.20042573 0.60300004 4278392847
0.016654287 0.20042573 0.60300004 4279112973
0.017802857 0.20042573 0.60300004 4279833866
0.018982857 0.2007581 0.60400003 4279768326
0.020166667 0.20109048 0.60500002 4279702021
0.021319048 0.20109048 0.60500002 4279701508
0.02247143 0.20109048 0.60500002 4279702536
0.023662858 0.20142286 0.60600001 4279703821
0.024817143 0.20142286 0.60600001 4279703564
0.025971429 0.20142286 0.60600001 4279768844
0.027125714 0.20142286 0.60600001 4279899662
0.028279999 0.20142286 0.60600001 4279899408
0.029434286 0.20142286 0.60600001 4279899918
0.030588571 0.20142286 0.60600001 4279573004
0.031795241 0.20175526 0.60700005 4279246352
0.032951429 0.20175526 0.60700005 4279706132
0.034107622 0.20175526 0.60700005 4280230933
0.035263814 0.20175526 0.60700005 4280690198
0.036480002 0.20208763 0.60800004 4281147425
0.037638098 0.20208763 0.60800004 4281609259
0.038860001 0.20242001 0.60900003 4282131745
0.040020004 0.20242001 0.60900003 4281605911
0.041315239 0.20308475 0.611 4281147160
0.042479049 0.20308475 0.611 4282069017
0.043642856 0.20308475 0.611 4283052050
0.044880003 0.20341715 0.61200005 4282200331
0.046045717 0.20341715 0.61200005 4281347339
0.047211431 0.20341715 0.61200005 4281215500
0.048456192 0.20374954 0.61300004 4281084171
0.049704764 0.20408191 0.61400002 4280953098
0.050874289 0.20408191 0.61400002 4280821271
0.052043814 0.20408191 0.61400002 4280623908
0.053300001 0.20441429 0.61500001 4280425235
0.054471429 0.20441429 0.61500001 4280161283
0.055642854 0.20441429 0.61500001 4279899656
0.056814287 0.20441429 0.61500001 4280096780
0.058268573 0.20541143 0.61800003 4280359947
0.059445716 0.20541143 0.61800003 4280095242
0.06072095 0.20574382 0.61900002 4279901446
0.061900001 0.20574382 0.61900002 4280163842
0.063384764 0.20674096 0.62200004 4280425736
0.064569525 0.20674096 0.62200004 4280361742
0.065754294 0.20674096 0.62200004 4280297225
0.067046665 0.20707333 0.62300003 4280298501
0.068233334 0.20707333 0.62300003 4280296457
0.069531433 0.20740572 0.62400001 4280363278
0.070946671 0.20807049 0.62600005 4280428820
0.072254293 0.20840287 0.62700003 4281018907
0.073448576 0.20840287 0.62700003 4281673235
0.074761905 0.20873524 0.62800002 4281147916
0.075958095 0.20873524 0.62800002 4280687886
0.077277139 0.20906761 0.62900001 4280425232
0.078475237 0.20906761 0.62900001 4280228886
0.079546668 0.20873524 0.62800002 4280163613
0.080871426 0.20906761 0.62900001 4280098324
0.08233048 0.20973238 0.63100004 4280229898
0.083929524 0.21072952 0.634 4280360721
0.085137136 0.21072952 0.634 4280229656
0.086344764 0.21072952 0.634 4280164113
0.087828577 0.2113943 0.63600004 4280164106
0.089320004 0.21205905 0.63800001 4280229398
0.09067715 0.21239144 0.63900006 4280229411
0.092181914 0.21305621 0.64100003 4280293401
0.093548574 0.21338858 0.64200002 4280292111
0.09477143 0.21338858 0.64200002 4280359707
0.096442863 0.21438572 0.64500004 4280295464
0.097974285 0.21505049 0.64700001 4280296733
0.099206664 0.21505049 0.64700001 4280363538
0.10059428 0.21538286 0.648 4280428308
0.1023 0.21638 0.65100002 4279707927
0.10354 0.21638 0.65100002 4278985484
0.10478 0.21638 0.65100002 4278649601
0.10618286 0.21671239 0.65200001 4278321479
0.10791905 0.21770954 0.65500003 4284579469
0.1095 0.21837428 0.65700001 4290827708
0.1115943 0.22003621 0.66200006 4292869867
0.11336667 0.22103333 0.66500002 4294901479
0.11463334 0.22103333 0.66500002 4294835940
0.1159 0.22103333 0.66500002 4294835945
0.11716667 0.22103333 0.66500002 4294835950
0.11861143 0.22136572 0.66600001 4294901446
0.14988285 0.25028285 0.75300002 4281633130
0.15071429 0.24928574 0.75000006 4285030461
0.15214287 0.24928574 0.75000006 4281666321
0.15357144 0.24928574 0.75000006 4278388233
0.15500002 0.24928574 0.75000006 4278321409
0.36316288 0.48560861 1.4610001 4279046423
0.3674486 0.48760289 1.4670001 4278848269
0.36872858 0.48560861 1.4610001 4278651139
0.37303716 0.48760289 1.4670001 4278454786
0.37429431 0.48560861 1.4610001 4278453505
0.38017431 0.48959717 1.473 4278453505
0.38298002 0.48959717 1.473 4278387713
0.19663334 0.19776668 0.59500003 4278388225
0.19743429 0.19743429 0.59400004 4278322689
0.19823144 0.19710192 0.59300005 4278257155
0.19902475 0.19676952 0.59200001 4278322693
0.19981429 0.19643715 0.59100002 4278387715
0.20094001 0.19643715 0.59100002 4278322433
0.20172381 0.19610478 0.59000003 4278322689
0.20250382 0.19577239 0.58900005 4278322945
0.20362574 0.19577239 0.58900005 4278387713
0.20474763 0.19577239 0.58900005 4278321921
0.20552 0.19544001 0.588 4278321665
0.20664001 0.19544001 0.588 4278452737
0.20775999 0.19544001 0.588 4278649346
0.20888001 0.19544001 0.588 4278452995
0.20892859 0.19444287 0.58500004 4278321922
0.20932476 0.19377808 0.583 4278453249
0.21007429 0.19344573 0.58200002 4278649601
0.21082 0.19311334 0.58100003 4278518273
0.21156192 0.19278096 0.58000004 4278452737
0.21266668 0.19278096 0.58000004 4278584066
0.21377145 0.19278096 0.58000004 4278780675
0.21413524 0.19211619 0.57800001 4278519557
0.21486382 0.19178382 0.57700002 4278256899
0.21596286 0.19178382 0.57700002 4278257154
0.21706191 0.19178382 0.57700002 4278321921
0.21778287 0.19145145 0.57600003 4278256641
0.21888001 0.19145145 0.57600003 4278256385
0.21997716 0.19145145 0.57600003 4278256385
0.2210743 0.19145145 0.57600003 4278256386
0.22178572 0.19111906 0.57500005 4278321924
0.22288097 0.19111906 0.57500005 4278387202
0.22397621 0.19111906 0.57500005 4278322177
0.22428857 0.19045429 0.57300001 4278322433
0.22498667 0.1901219 0.57200003 4278322689
0.22607619 0.1901219 0.57200003 4278322689
0.22676858 0.18978953 0.57100004 4278257153
0.22745715 0.18945716 0.57000005 4278256641
0.2281419 0.18912476 0.56900001 4278256641
0.22882286 0.18879239 0.56800002 4278256386
0.22990477 0.18879239 0.56800002 4278387459
0.23058 0.18846001 0.56700003 4278584066
0.23125145 0.18812762 0.56600004 4278387458
0.23191905 0.18779524 0.565 4278256898
0.23299524 0.18779524 0.565 4278257155
0.23324287 0.18713048 0.56300002 4278323202
0.23389906 0.18679811 0.56200004 4278258177
0.23455144 0.18646573 0.56100005 4278257665
0.2352 0.18613334 0.56 4278257409
0.23626667 0.18613334 0.56 4278322177
0.23648572 0.18546857 0.55800003 4278322177
0.23712288 0.18513621 0.55700004 4278387713
0.23775621 0.18480383 0.55600005 4278322433
0.23838572 0.18447143 0.55500001 4278322945
0.23901144 0.18413906 0.55400002 4278321921
0.23963335 0.18380667 0.55300003 4278321921
0.24025145 0.18347429 0.55200005 4278322177
0.24086571 0.1831419 0.551 4278322433
0.24191524 0.1831419 0.551 4278322689
0.24252382 0.18280952 0.55000001 4278387457
0.24357143 0.18280952 0.55000001 4278322177
0.24461906 0.18280952 0.55000001 4278256641
0.24522002 0.18247715 0.54900002 4278256641
0.24581717 0.18214478 0.54800004 4278256641
0.24686097 0.18214478 0.54800004 4278256641
0.24790478 0.18214478 0.54800004 4278322433
0.24849431 0.18181239 0.54700005 4278257666
0.24907999 0.18148001 0.546 4278256897
0.25057811 0.18181239 0.54700005 4278256897
0.25024 0.18081523 0.54400003 4278256899
0.25081429 0.18048288 0.54300004 4278322437
0.25138479 0.18015049 0.54200006 4278453507
0.25241718 0.18015049 0.54200006 4278322689
0.2529819 0.17981809 0.54100001 4278257153
0.25401238 0.17981809 0.54100001 4278256897
0.25504288 0.17981809 0.54100001 4278256897
0.25560001 0.17948572 0.54000002 4278257409
0.25615335 0.17915334 0.53900003 4278256897
0.25670287 0.17882097 0.53800005 4278256641
0.25724855 0.17848857 0.537 4278256897
0.25779048 0.1781562 0.53600001 4278256641
0.25881144 0.1781562 0.53600001 4278256385
0.25983238 0.1781562 0.53600001 4278256385
0.26036668 0.17782381 0.53500003 4278256385
0.26089716 0.17749144 0.53400004 4278256641
0.26142383 0.17715906 0.53300005 4278256643
0.26194668 0.17682667 0.53200001 4278256645
0.26295999 0.17682667 0.53200001 4278256643
0.26347715 0.17649429 0.53100002 4278256641
0.26448858 0.17649429 0.53100002 4278322178
0.26500002 0.17616192 0.53000003 4278256644
0.26600954 0.17616192 0.53000003 4278256642
0.26701906 0.17616192 0.53000003 4278256897
0.26802859 0.17616192 0.53000003 4278322433
0.26903811 0.17616192 0.53000003 4278257153
0.27004763 0.17616192 0.53000003 4278256897
0.27054575 0.17582954 0.52900004 4278256642
0.27052668 0.17516476 0.52700001 4278256641
0.27153048 0.17516476 0.52700001 4278256641
0.27253428 0.17516476 0.52700001 4278256897
0.27353808 0.17516476 0.52700001 4278257921
0.27402097 0.17483239 0.52600002 4278257921
0.27502286 0.17483239 0.52600002 4278257921
0.27602479 0.17483239 0.52600002 4278322178
0.27702668 0.17483239 0.52600002 4278387971
0.27750003 0.1745 0.52500004 4278518530
0.27850002 0.1745 0.52500004 4278452993
0.27950001 0.1745 0.52500004 4278387457
0.27996573 0.17416763 0.52400005 4278322177
0.28096384 0.17416763 0.52400005 4278256386
0.28142381 0.17383525 0.523 4278387459
0.28242001 0.17383525 0.523 4278518530
-0.3931686 0.23834573 0.71300006 4280160288
-0.39181051 0.23834573 0.71300006 4279768080
-0.38935715 0.23767714 0.71100003 4279966721
-0.38800287 0.23767714 0.71100003 4280099342
-0.38828003 0.23868001 0.71400005 4280164892
-0.38692001 0.23868001 0.71400005 4280230430
-0.38556001 0.23868001 0.71400005 4279901985
-0.3852762 0.23934858 0.71600002 4279573786
-0.38230383 0.23834573 0.71300006 4279900948
-0.38094574 0.23834573 0.71300006 4280293902
-0.38012004 0.23868001 0.71400005 4280031497
-0.37876001 0.23868001 0.71400005 4279833358
-0.37740001 0.23868001 0.71400005 4280163859
-0.37762001 0.23968287 0.71700001 4280427027
-0.37625429 0.23968287 0.71700001 4280034836
-0.3759343 0.24035144 0.71900004 4279642644
-0.3745648 0.24035144 0.71900004 4280100885
-0.37319523 0.24035144 0.71900004 4280493591
-0.37182572 0.24035144 0.71900004 4280297497
-0.37045622 0.24035144 0.71900004 4280101657
-0.36908668 0.24035144 0.71900004 4280560410
-0.36669427 0.23968287 0.71700001 4281019417
-0.36634761 0.24035144 0.71900004 4280888601
-0.36396286 0.23968287 0.71700001 4280758045
-0.3636086 0.24035144 0.71900004 4281085218
-0.36223906 0.24035144 0.71900004 4281347108
-0.36086956 0.24035144 0.71900004 4281348135
-0.35999998 0.24068573 0.72000003 4281349158
-0.35962477 0.24135432 0.72200006 4281480741
-0.35824955 0.24135432 0.72200006 4281612066
-0.35687429 0.24135432 0.72200006 4281611808
-0.35549906 0.24135432 0.72200006 4281677345
-0.35461432 0.24168858 0.72300005 4281873955
-0.35323715 0.24168858 0.72300005 4282136364
-0.35137337 0.24135432 0.72200006 4282398774
-0.34999815 0.24135432 0.72200006 4282595643
-0.34862289 0.24135432 0.72200006 4282464833
-0.34724766 0.24135432 0.72200006 4282334016
-0.34491429 0.24068573 0.72000003 4282661952
-0.34354284 0.24068573 0.72000003 4282924611
-0.34312195 0.24135432 0.72200006 4283056199
-0.34174672 0.24135432 0.72200006 4283122249
-0.34084287 0.24168858 0.72300005 4283056971
-0.33946574 0.24168858 0.72300005 4282926150
-0.33808857 0.24168858 0.72300005 4283057217
-0.33764288 0.24235715 0.72500002 4283188288
-0.3362619 0.24235715 0.72500002 4283516736
-0.33488095 0.24235715 0.72500002 4283911497
-0.33258 0.24168858 0.72300005 4283583059
-0.33120289 0.24168858 0.72300005 4283320401
-0.32982573 0.24168858 0.72300005 4283252816
-0.32799432 0.24135432 0.72200006 4283252303
-0.32707143 0.24168858 0.72300005 4283383631
-0.32524386 0.24135432 0.72200006 4283449680
-0.3238686 0.24135432 0.72200006 4283320658
-0.32562 0.24369429 0.72900003 4283190601
-0.32423145 0.24369429 0.72900003 4283125056
-0.32284287 0.24369429 0.72900003 4282994244
-0.32145429 0.24369429 0.72900003 4283124808
-0.32006571 0.24369429 0.72900003 4283189834
-0.31867716 0.24369429 0.72900003 4283386700
-0.31685334 0.24336001 0.72800004 4283583563
-0.31330001 0.24168858 0.72300005 4283583563
-0.31192288 0.24168858 0.72300005 4283584587
-0.30882764 0.24035144 0.71900004 4283584587
-0.3074581 0.24035144 0.71900004 4283519055
-0.30651432 0.24068573 0.72000003 4283322451
-0.30514288 0.24068573 0.72000003 4283126097
-0.30377144 0.24068573 0.72000003 4283256400
-0.30324003 0.24135432 0.72200006 4283451728
-0.3022829 0.24168858 0.72300005 4283386193
-0.30340287 0.24369429 0.72900003 4283386962
-0.30201429 0.24369429 0.72900003 4283518804
-0.30021337 0.24336001 0.72800004 4283651667
-0.29882666 0.24336001 0.72800004 4283586130
-0.29744002 0.24336001 0.72800004 4283586133
-0.29524001 0.24269143 0.72600001 4283651417
-0.29385716 0.24269143 0.72600001 4283651414
-0.29207143 0.24235715 0.72500002 4283586132
-0.29069048 0.24235715 0.72500002 4283455575
-0.28930953 0.24235715 0.72500002 4283586651
-0.28832573 0.24269143 0.72600001 4283783001
-0.2865476 0.24235715 0.72500002 4283782743
-0.28516668 0.24235715 0.72500002 4283782744
-0.28417715 0.24269143 0.72600001 4283783258
-0.28240478 0.24235715 0.72500002 4283847775
-0.28102383 0.24235715 0.72500002 4283914341
-0.27964285 0.24235715 0.72500002 4284046426
-0.27941337 0.24336001 0.72800004 4283980111
-0.27802667 0.24336001 0.72800004 4283913548
-0.27664 0.24336001 0.72800004 4283717193
-0.27563146 0.24369429 0.72900003 4283520839
-0.27499524 0.24436285 0.73100001 4283390534
-0.27360284 0.24436285 0.73100001 4283260486
-0.27221048 0.24436285 0.73100001 4283126343
-0.27118859 0.24469715 0.73200005 4282994503
-0.26979432 0.24469715 0.73200005 4282996295
-0.26840001 0.24469715 0.73200005 4282998352
-0.26700574 0.24469715 0.73200005 4282603610
-0.26561144 0.24469715 0.73200005 4282143570
-0.26421714 0.24469715 0.73200005 4282405962
-0.26282287 0.24469715 0.73200005 4282668615
-0.26142859 0.24469715 0.73200005 4282340932
-0.26074478 0.24536571 0.73400003 4282013515
-0.25934666 0.24536571 0.73400003 4281677650
-0.22801334 0.23333143 0.69800001 4292134557
-0.22668381 0.23333143 0.69800001 4291805331
-0.22600001 0.23400001 0.70000005 4291673993
-0.22466667 0.23400001 0.70000005 4291608209
-0.22269523 0.23333143 0.69800001 4291610009
-0.22200002 0.23400001 0.70000005 4291676562
-0.22066668 0.23400001 0.70000005 4291743115
-0.21870667 0.23333143 0.69800001 4291875483
-0.21737714 0.23333143 0.69800001 4290955691
-0.21604763 0.23333143 0.69800001 4290104433
-0.21441048 0.23299715 0.69700003 4284626488
-0.21247144 0.23232859 0.69500005 4279173703
-0.21114764 0.23232859 0.69500005 4283248214
-0.2095219 0.23199429 0.69400001 4287405126
-0.20819999 0.23199429 0.69400001 4290957879
-0.18879716 0.22163144 0.66300005 4293318448
-0.18753429 0.22163144 0.66300005 4293125658
-0.18627143 0.22163144 0.66300005 4286941957
-0.18500859 0.22163144 0.66300005 4280746243
-0.18374573 0.22163144 0.66300005 4280222977
-0.18248287 0.22163144 0.66300005 4279639309
-0.18094668 0.22129716 0.66200006 4280495386
-0.17941429 0.22096285 0.66100001 4281347617
-0.17815524 0.22096285 0.66100001 4281217576
-0.19150668 0.24804002 0.74200004 4281348401
-0.18958095 0.24737142 0.74000001 4281543471
-0.18740858 0.24636859 0.73700005 4281215789
-0.18524763 0.24536571 0.73400003 4280952875
-0.18384953 0.24536571 0.73400003 4280690729
-0.18195429 0.24469715 0.73200005 4280494372
-0.18056001 0.24469715 0.73200005 4280099360
-0.17965524 0.24536571 0.73400003 4279703071
-0.17825715 0.24536571 0.73400003 4279439902
-0.17685905 0.24536571 0.73400003 4279243024
-0.17498286 0.24469715 0.73200005 4279111938
-0.17358859 0.24469715 0.73200005 4279046403
-0.14614478 0.22597715 0.67600006 4278849796
-0.14464286 0.22564286 0.67500001 4278784262
-0.14314476 0.22530857 0.67400002 4278980616
-0.14122953 0.2243057 0.671 4279242766
-0.13974287 0.22397144 0.67000002 4279307541
-0.13784668 0.22296859 0.66700006 4279373323
-0.13616668 0.22230001 0.66500002 4279241986
-0.13449429 0.22163144 0.66300005 4279111939
-0.13262857 0.22062857 0.66000003 4279308292
-0.13097335 0.21996002 0.65800005 4279504387
-0.12952286 0.21962571 0.65700001 4279111171
-0.1280762 0.21929143 0.65600002 4278718210
-0.12605333 0.21795429 0.65200001 4278981377
-0.12442858 0.21728572 0.65000004 4279178505
-0.12281142 0.21661714 0.648 4279441681
-0.12138952 0.21628286 0.64700001 4279639335
-0.11978572 0.2156143 0.64500004 4280103485
-0.11855715 0.2156143 0.64500004 4280568869
-0.11714668 0.21528001 0.64400005 4279833102
-0.11538001 0.21427715 0.64100003 4279175176
-0.11398096 0.21394287 0.64000005 4279175938
-0.11276191 0.21394287 0.64000005 4279241729
-0.11136858 0.21360858 0.63900006 4279241729
-0.10946192 0.21227145 0.63500005 4279241735
-0.10825239 0.21227145 0.63500005 4279307277
-0.10704286 0.21227145 0.63500005 4279438599
-0.10566666 0.21193714 0.634 4279308545
-0.10429429 0.21160285 0.63300002 4279244034
-0.10308857 0.21160285 0.63300002 4278850052
-0.10172191 0.21126859 0.63200003 4278455042
-0.10035905 0.2109343 0.63100004 4280683521
-0.098842859 0.21026573 0.62900001 4282925616
-0.097489528 0.20993143 0.62800002 4284443231
-0.096293338 0.20993143 0.62800002 4285950043
-0.094794288 0.20926286 0.62600005 4285556824
-0.093452379 0.20892857 0.625 4285228112
-0.092114285 0.20859429 0.62400001 4285031497
-0.090779997 0.20826 0.62300003 4284899908
-0.089449525 0.20792572 0.62200004 4284832831
-0.088264771 0.20792572 0.62200004 4284766776
-0.087080002 0.20792572 0.62200004 4284635697
-0.08589524 0.20792572 0.62200004 4284504633
-0.084846668 0.20826 0.62300003 4284174145
-0.083794288 0.20859429 0.62400001 4283843641
-0.082870483 0.20926286 0.62600005 4283581234
-0.082069524 0.21026573 0.62900001 4283320882
-0.081385717 0.21160285 0.63300002 4282860594
-0.080180004 0.21160285 0.63300002 4282465833
-0.079099044 0.21193714 0.634 4281744928
-0.078137144 0.21260571 0.63600004 4281087262
-0.077167623 0.21327429 0.63800001 4279963420
-0.076071434 0.21360858 0.63900006 4278914064
-0.075088575 0.21427715 0.64100003 4278981124
-0.074213333 0.21528001 0.64400005 4279047178
-0.073213331 0.21594857 0.64600003 4279112209
-0.072094291 0.21628286 0.64700001 4279177481
-0.071190484 0.21728572 0.65000004 4279177474
-0.069952384 0.21728572 0.65000004 4279243009
-0.068714283 0.21728572 0.65000004 4279308289
-0.06758 0.21762 0.65100002 4279439105
-0.066340007 0.21762 0.65100002 4279439362
-0.070500001 0.23567145 0.70500004 4279439617
-0.069059052 0.23533715 0.70400006 4279374081
-0.067621902 0.23500286 0.70300001 4279374851
-0.066282853 0.23500286 0.70300001 4279243525
-0.065960005 0.23868001 0.71400005 4279111939
-0.064599998 0.23868001 0.71400005 4279374338
-0.063151434 0.23834573 0.71300006 4279702531
-0.061620004 0.23767714 0.71100003 4279505157
-0.060265716 0.23767714 0.71100003 4279308035
-0.058911432 0.23767714 0.71100003 4279308290
-0.057476193 0.23734286 0.71000004 4279308546
-0.056123812 0.23734286 0.71000004 4279243522
-0.054771431 0.23734286 0.71000004 4279178241
-0.053494286 0.23767714 0.71100003 4279244033
-0.052140001 0.23767714 0.71100003 4279309826
-0.051000003 0.23868001 0.71400005 4279374595
-0.04964 0.23868001 0.71400005 4279439874
-0.048212387 0.23834573 0.71300006 4279374593
-0.046854287 0.23834573 0.71300006 4279374850
-0.045368571 0.23767714 0.71100003 4279374340
-0.044014286 0.23767714 0.71100003 4279373827
-0.042660002 0.23767714 0.71100003 4279308290
-0.041305717 0.23767714 0.71100003 4279243009
-0.039951429 0.23767714 0.71100003 4279047169
-0.038597144 0.23767714 0.71100003 4278785796
-0.037242856 0.23767714 0.71100003 4278850824
-0.035888575 0.23767714 0.71100003 4278981892
-0.034631431 0.23834573 0.71300006 4278980865
-0.033273336 0.23834573 0.71300006 4278981634
-0.03191524 0.23834573 0.71300006 4278981124
-0.030557144 0.23834573 0.71300006 4278979590
-0.029199049 0.23834573 0.71300006 4278980105
-0.014357143 0.2015743 0.60300004 4278980871
-0.013186668 0.20124002 0.60200006 4278914561
-0.012040001 0.20124002 0.60200006 4278848523
-0.010857143 0.20057143 0.60000002 4279242262
-0.0097466679 0.20124002 0.60200006 4279698964
-0.0086000003 0.20124002 0.60200006 4279439122
-0.0074409526 0.20090571 0.60100001 4279176205
-0.0062857145 0.20057143 0.60000002 4279176457
-0.0051428573 0.20057143 0.60000002 4279242505
-0.0040000002 0.20057143 0.60000002 4279243017
-0.0028571428 0.20057143 0.60000002 4279305733
-0.0017142858 0.20057143 0.60000002 4279439361
-0.00057142857 0.20057143 0.60000002 4279634951
0.00057238096 0.20090571 0.60100001 4279372557
0.0017171428 0.20090571 0.60100001 4279110408
0.0028619049 0.20090571 0.60100001 4279372291
0.0040066671 0.20090571 0.60100001 4279634434
0.0051600006 0.20124002 0.60200006 4279176449
0.0063066673 0.20124002 0.60200006 4278784004
0.0074533341 0.20124002 0.60200006 4278981384
0.0086000003 0.20124002 0.60200006 4279178756
0.0097466679 0.20124002 0.60200006 4279310337
0.010911429 0.2015743 0.60300004 4279441925
0.012040001 0.20124002 0.60200006 4279377418
0.013208573 0.2015743 0.60300004 4279313163
