# .PCD v0.7 - Point Cloud Data file format
VERSION 0.7
FIELDS x y z rgba
SIZE 4 4 4 4
TYPE F F F U
COUNT 1 1 1 1
WIDTH 1112
HEIGHT 1
VIEWPOINT 0 0 0 1 0 0 0
POINTS 1112
DATA ascii
-0.37662858 0.23756573 0.67600006 4287071368
-0.37700668 0.23862001 0.67900002 4286874504
-0.37571335 0.23862001 0.67900002 4286676865
-0.37607431 0.2396743 0.68200004 4286216058
-0.37477526 0.2396743 0.68200004 4285821303
-0.37347621 0.2396743 0.68200004 4285361013
-0.37217715 0.2396743 0.68200004 4284967799
-0.36979046 0.23897143 0.68000001 4285033337
-0.37174669 0.24108002 0.68600005 4285098865
-0.38016003 0.24740574 0.70400006 4285230186
-0.37935716 0.24775715 0.70500004 4285362028
-0.37747812 0.24740574 0.70400006 4284310382
-0.37667146 0.24775715 0.70500004 4283258443
-0.37692571 0.24881144 0.708 4280883241
-0.37663811 0.2495143 0.71000004 4278585891
-0.37687144 0.25056857 0.71300006 4279047454
-0.37551335 0.25056857 0.71300006 4279572003
-0.37415528 0.25056857 0.71300006 4279703337
-0.37279719 0.25056857 0.71300006 4279834155
-0.45758 0.41082001 1.169 4278782504
-0.45691147 0.41222575 1.1730001 4278784550
-0.45467716 0.41222575 1.1730001 4278849828
-0.45244288 0.41222575 1.1730001 4278915108
-0.4502086 0.41222575 1.1730001 4278979620
-0.44797432 0.41222575 1.1730001 4279111204
-0.44574004 0.41222575 1.1730001 4279111205
-0.44350573 0.41222575 1.1730001 4279176480
-0.44127148 0.41222575 1.1730001 4279307548
-0.43823144 0.41784856 1.189 4280620348
-0.43596667 0.41784856 1.189 4281476411
-0.4337019 0.41784856 1.189 4281611579
-0.43143713 0.41784856 1.189 4281809988
-0.4291724 0.41784856 1.189 4282598222
-0.4269076 0.41784856 1.189 4283383886
-0.41669431 0.41222575 1.1730001 4283123286
-0.41446003 0.41222575 1.1730001 4283518557
-0.41222575 0.41222575 1.1730001 4283911507
-0.40999144 0.41222575 1.1730001 4283976777
-0.40775719 0.41222575 1.1730001 4284109907
-0.40552288 0.41222575 1.1730001 4283849821
-0.4032886 0.41222575 1.1730001 4283585622
-0.39972192 0.44561142 1.268 4281940296
-0.39730665 0.44561142 1.268 4282400597
-0.3933343 0.44385427 1.263 4283257955
-0.39092857 0.44385427 1.263 4284108382
-0.38852286 0.44385427 1.263 4283451738
-0.38611713 0.44385427 1.263 4282863447
-0.38644573 0.44701719 1.2720001 4283258196
-0.38553241 0.44877428 1.2770001 4283719003
-0.38160002 0.44701719 1.2720001 4284310883
-0.37798476 0.44561142 1.268 4284901483
-0.37408856 0.44385427 1.263 4285295732
-0.37168285 0.44385427 1.263 4285694334
-0.36518383 0.4389343 1.2490001 4286551944
-0.36164287 0.43752858 1.245 4287469711
-0.35927144 0.43752858 1.245 4287208086
-0.35689998 0.43752858 1.245 4287009933
-0.35310477 0.43577144 1.24 4286152835
-0.35074285 0.43577144 1.24 4285366156
-0.34978572 0.43752858 1.245 4287601557
-0.34601906 0.43577144 1.24 4289898147
-0.34504285 0.43752858 1.245 4289638834
-0.34267142 0.43752858 1.245 4289441970
-0.34029999 0.43752858 1.245 4289442226
-0.33792859 0.43752858 1.245 4289442747
-0.33555713 0.43752858 1.245 4289705669
-0.3331857 0.43752858 1.245 4289968300
-0.33187714 0.4389343 1.2490001 4287789972
-0.33081716 0.44069144 1.2540001 4285626505
-0.32973811 0.44244859 1.2590001 4286018942
-0.32968 0.44561142 1.268 4286414727
-0.32726476 0.44561142 1.268 4287664273
-0.3258743 0.44701719 1.2720001 4288977574
-0.32472286 0.44877428 1.2770001 4288456123
-0.32229051 0.44877428 1.2770001 4287928479
-0.32336473 0.45369428 1.291 4287464067
-0.32090569 0.45369428 1.291 4287004807
-0.18453714 0.28254858 0.80400002 4289307791
-0.18300572 0.28254858 0.80400002 4283769677
-0.18102285 0.28184572 0.80200005 4278255927
-0.17994286 0.28254858 0.80400002 4279700001
-0.17841142 0.28254858 0.80400002 4281149994
-0.17732002 0.28325146 0.80600005 4281348148
-0.17578477 0.28325146 0.80600005 4281546300
-0.17511429 0.28465715 0.81000006 4281218885
-0.17400001 0.28536001 0.81200004 4280956978
-0.17245333 0.28536001 0.81200004 4281612575
-0.17090668 0.28536001 0.81200004 4282268977
-0.16936 0.28536001 0.81200004 4282597956
-0.16781335 0.28536001 0.81200004 4282927178
-0.16626666 0.28536001 0.81200004 4283321425
-0.16472001 0.28536001 0.81200004 4283782226
-0.16317333 0.28536001 0.81200004 4283849044
-0.16162667 0.28536001 0.81200004 4283980630
-0.16008002 0.28536001 0.81200004 4284112473
-0.085140005 0.49867716 1.419 4280552455
-0.082437143 0.49867716 1.419 4280233266
-0.079734288 0.49867716 1.419 4283130461
-0.077031434 0.49867716 1.419 4286080600
-0.074328572 0.49867716 1.419 4285688660
-0.071625717 0.49867716 1.419 4285359698
-0.062860005 0.47337431 1.3470001 4285029701
-0.060518101 0.47513145 1.3520001 4284112186
-0.05794286 0.47513145 1.3520001 4283255094
-0.055162862 0.47337431 1.3470001 4281599026
-0.052597146 0.47337431 1.3470001 4279973161
-0.049845714 0.47161713 1.342 4282603040
-0.047289524 0.47161713 1.342 4285226028
-0.044533335 0.46950862 1.3360001 4284702264
-0.041831434 0.46775147 1.3310001 4284174379
-0.039296191 0.46775147 1.3310001 4282925598
-0.03662286 0.46599433 1.3260001 4281672735
-0.033840001 0.46248004 1.3160001 4279961377
-0.031214288 0.46072289 1.3110001 4278257212
-0.028717143 0.46072289 1.3110001 4278257240
-0.026220001 0.46072289 1.3110001 4278273919
-0.023722859 0.46072289 1.3110001 4284713127
-0.021225717 0.46072289 1.3110001 4291214524
-0.018728573 0.46072289 1.3110001 4293063121
-0.016293336 0.46248004 1.3160001 4294899678
-0.013734287 0.46072289 1.3110001 4294901228
-0.011237144 0.46072289 1.3110001 4294901229
-0.0087400004 0.46072289 1.3110001 4294768877
-0.0062428573 0.46072289 1.3110001 4294637806
-0.0037457147 0.46072289 1.3110001 4294768878
-0.0012485716 0.46072289 1.3110001 4294901230
0.0012485716 0.46072289 1.3110001 4294900975
0.0037457147 0.46072289 1.3110001 4294900974
0.0062428573 0.46072289 1.3110001 4294835438
0.0087733343 0.46248004 1.3160001 4294835700
0.01128 0.46248004 1.3160001 4294835961
0.013786667 0.46248004 1.3160001 4294901497
0.016293336 0.46248004 1.3160001 4294901496
0.018800002 0.46248004 1.3160001 4294901497
0.021306667 0.46248004 1.3160001 4294901499
0.023813335 0.46248004 1.3160001 4294901499
0.026320001 0.46248004 1.3160001 4294901499
0.028717143 0.46072289 1.3110001 4294901499
0.031214288 0.46072289 1.3110001 4294901499
0.03371143 0.46072289 1.3110001 4294901499
0.036208577 0.46072289 1.3110001 4294901500
0.038705718 0.46072289 1.3110001 4294901501
0.041202862 0.46072289 1.3110001 4294901501
0.043700002 0.46072289 1.3110001 4294901500
0.046020955 0.45896575 1.3060001 4294901499
0.04869429 0.46072289 1.3110001 4294901500
0.051191431 0.46072289 1.3110001 4294901501
0.053688575 0.46072289 1.3110001 4294901501
0.056400005 0.46248004 1.3160001 4294901502
0.058682859 0.46072289 1.3110001 4294901502
0.06141334 0.46248004 1.3160001 4294901502
0.063920006 0.46248004 1.3160001 4294901502
0.066426672 0.46248004 1.3160001 4294901502
0.068933338 0.46248004 1.3160001 4294901502
0.071168572 0.46072289 1.3110001 4294901502
0.073665723 0.46072289 1.3110001 4294901502
0.076453343 0.46248004 1.3160001 4294901502
0.078960001 0.46248004 1.3160001 4294901502
0.081466675 0.46248004 1.3160001 4294901502
0.083654292 0.46072289 1.3110001 4294901502
0.086151436 0.46072289 1.3110001 4294901502
0.08864858 0.46072289 1.3110001 4294901502
0.091493338 0.46248004 1.3160001 4294901502
0.093642861 0.46072289 1.3110001 4294901502
0.096140005 0.46072289 1.3110001 4294901502
0.098637149 0.46072289 1.3110001 4294901502
0.10113429 0.46072289 1.3110001 4294901502
0.10402668 0.46248004 1.3160001 4294901502
0.10653334 0.46248004 1.3160001 4294901502
0.10904001 0.46248004 1.3160001 4294901502
0.11112286 0.46072289 1.3110001 4294901502
0.11362001 0.46072289 1.3110001 4294901502
0.11611715 0.46072289 1.3110001 4294901502
0.11861429 0.46072289 1.3110001 4294901502
0.12111144 0.46072289 1.3110001 4294901502
0.12360859 0.46072289 1.3110001 4294901502
0.12610573 0.46072289 1.3110001 4294901502
0.12860286 0.46072289 1.3110001 4294901502
0.13110001 0.46072289 1.3110001 4294901502
0.13359715 0.46072289 1.3110001 4294901502
0.1360943 0.46072289 1.3110001 4294901502
0.13912 0.46248004 1.3160001 4294901502
0.14162667 0.46248004 1.3160001 4294901502
0.14413334 0.46248004 1.3160001 4294901502
0.14664002 0.46248004 1.3160001 4294901502
0.14914668 0.46248004 1.3160001 4294901502
0.15165333 0.46248004 1.3160001 4294901502
0.15416001 0.46248004 1.3160001 4294901502
0.15666668 0.46248004 1.3160001 4294901502
0.15917335 0.46248004 1.3160001 4294901502
0.16168 0.46248004 1.3160001 4294901502
0.16418667 0.46248004 1.3160001 4294901502
0.16669334 0.46248004 1.3160001 4294901502
0.16920002 0.46248004 1.3160001 4294901502
0.17170668 0.46248004 1.3160001 4294901502
0.17421333 0.46248004 1.3160001 4294901502
0.17672001 0.46248004 1.3160001 4294901502
0.17922668 0.46248004 1.3160001 4294901502
0.18173335 0.46248004 1.3160001 4294901502
0.18354 0.46072289 1.3110001 4294901502
0.18674667 0.46248004 1.3160001 4294901502
0.18925335 0.46248004 1.3160001 4294901486
0.19176002 0.46248004 1.3160001 4294901470
0.19426668 0.46248004 1.3160001 4294895790
0.19677335 0.46248004 1.3160001 4291744639
0.19928001 0.46248004 1.3160001 4288637504
0.20255335 0.46423718 1.3210001 4284023041
0.20832953 0.47161713 1.342 4279447111
0.21167144 0.47337431 1.3470001 4285226124
0.2150324 0.47513145 1.3520001 4291080102
0.21857335 0.47724003 1.358 4293000641
0.2219743 0.47899717 1.363 4294892951
0.22457048 0.47899717 1.363 4289034093
0.23550002 0.49656859 1.4130001 4283265126
0.23819144 0.49656859 1.4130001 4286212702
0.24190572 0.49867716 1.419 4289231711
0.24460858 0.49867716 1.419 4289367137
0.24731143 0.49867716 1.419 4289560677
0.25001431 0.49867716 1.419 4289623145
0.25271714 0.49867716 1.419 4289690479
0.25542 0.49867716 1.419 4289889140
0.25812283 0.49867716 1.419 4290085749
0.26082572 0.49867716 1.419 4290151541
0.26352859 0.49867716 1.419 4290282354
0.26623142 0.49867716 1.419 4290216815
-0.38106 0.23214 0.65700001 4287334548
-0.38212097 0.23355334 0.66100001 4287334545
-0.38143814 0.23390669 0.66200006 4287334802
-0.38075146 0.23426002 0.66300005 4287400084
-0.38120571 0.23532 0.66600001 4287530643
-0.37993714 0.23532 0.66600001 4287334034
-0.37923717 0.23567335 0.66700006 4287203217
-0.37910002 0.23638 0.66900003 4287268496
-0.37839046 0.23673333 0.67000002 4287333260
-0.37767714 0.23708665 0.671 4287267721
-0.37696004 0.23744 0.67200005 4287202439
-0.37735716 0.2385 0.67500001 4287071878
-0.37662858 0.23885335 0.67600006 4287005064
-0.37700668 0.23991334 0.67900002 4286873739
-0.37626669 0.24026667 0.68000001 4286807932
-0.37497142 0.24026667 0.68000001 4286150510
-0.37532476 0.24132667 0.68300003 4285558895
-0.37402382 0.24132667 0.68300003 4285361009
-0.37272286 0.24132667 0.68300003 4285164403
-0.37196571 0.24168001 0.68400002 4285163894
-0.37228858 0.24274001 0.68700004 4285163633
-0.38070002 0.24910001 0.70500004 4285098860
-0.37935716 0.24910001 0.70500004 4285099885
-0.37747812 0.24874668 0.70400006 4284442223
-0.37667146 0.24910001 0.70500004 4283851600
-0.37692571 0.25016001 0.708 4281279794
-0.37716857 0.25122002 0.71100003 4278716706
-0.37687144 0.25192666 0.71300006 4279244819
-0.37551335 0.25192666 0.71300006 4279769886
-0.37468001 0.25228 0.71400005 4279835434
-0.37279719 0.25192666 0.71300006 4279966508
-0.3714391 0.25192666 0.71300006 4280097326
-0.37008098 0.25192666 0.71300006 4280228383
-0.45914572 0.41446003 1.1730001 4278848295
-0.45691147 0.41446003 1.1730001 4278785058
-0.45467716 0.41446003 1.1730001 4278849822
-0.45244288 0.41446003 1.1730001 4278915104
-0.4502086 0.41446003 1.1730001 4278980130
-0.44797432 0.41446003 1.1730001 4279111204
-0.44726002 0.41587335 1.177 4279111462
-0.44501811 0.41587335 1.177 4279112224
-0.4427762 0.41587335 1.177 4279242523
-0.44053429 0.41587335 1.177 4279307300
-0.44276097 0.42011335 1.189 4279437870
-0.44049618 0.42011335 1.189 4279568678
-0.43823144 0.42011335 1.189 4280092958
-0.43596667 0.42011335 1.189 4280683035
-0.4337019 0.42011335 1.189 4280881177
-0.4328886 0.4215267 1.1930001 4281144869
-0.4291724 0.42011335 1.189 4281671729
-0.42403525 0.41728669 1.1810001 4282264113
-0.42178574 0.41728669 1.1810001 4282070066
-0.41811526 0.41587335 1.177 4281942081
-0.41446003 0.41446003 1.1730001 4281680464
-0.41222575 0.41446003 1.1730001 4281419063
-0.41138953 0.41587335 1.177 4281549343
-0.40914762 0.41587335 1.177 4281614132
-0.40690571 0.41587335 1.177 4281678665
-0.4046638 0.41587335 1.177 4281743434
-0.40378955 0.41728669 1.1810001 4281811019
-0.40154004 0.41728669 1.1810001 4281878862
-0.39928287 0.44484669 1.2590001 4281151812
-0.3968848 0.44484669 1.2590001 4281546317
-0.39574 0.44626001 1.263 4281944416
-0.3933343 0.44626001 1.263 4282536308
-0.39092857 0.44626001 1.263 4283191656
-0.38729239 0.44484669 1.2590001 4283125085
-0.38489428 0.44484669 1.2590001 4283058519
-0.38644573 0.44944 1.2720001 4283456081
-0.38402289 0.44944 1.2720001 4283916891
-0.3804 0.44802666 1.268 4284377446
-0.37649429 0.44626001 1.263 4284771184
-0.37408856 0.44626001 1.263 4285558395
-0.3649143 0.43813333 1.24 4286348681
-0.36255237 0.43813333 1.24 4286945176
-0.36019048 0.43813333 1.24 4287535762
-0.35667431 0.43672001 1.2360001 4287140749
-0.35546666 0.43813333 1.24 4286811521
-0.35196573 0.43672001 1.2360001 4286806134
-0.35074285 0.43813333 1.24 4286872216
-0.34838092 0.43813333 1.24 4288325563
-0.34601906 0.43813333 1.24 4289775540
-0.34365714 0.43813333 1.24 4289638574
-0.34019428 0.43672001 1.2360001 4289507502
-0.33784002 0.43672001 1.2360001 4289705646
-0.33548573 0.43672001 1.2360001 4289970104
-0.33420953 0.43813333 1.24 4288983234
-0.33184761 0.43813333 1.24 4288064158
-0.3308143 0.43989998 1.245 4286938490
-0.33081716 0.44308004 1.2540001 4285890168
-0.32842857 0.44308004 1.2540001 4286218102
-0.32968 0.44802666 1.268 4286546317
-0.32726476 0.44802666 1.268 4287998372
-0.32484952 0.44802666 1.268 4289444266
-0.32243428 0.44802666 1.268 4288387760
-0.32001904 0.44802666 1.268 4287401622
-0.32336473 0.45615333 1.291 4287136124
-0.18453714 0.28408 0.80400002 4284314984
-0.18300572 0.28408 0.80400002 4281733633
-0.18102285 0.28337336 0.80200005 4279107863
-0.17994286 0.28408 0.80400002 4280228909
-0.17841142 0.28408 0.80400002 4281281072
-0.17688 0.28408 0.80400002 4281610803
-0.17578477 0.2847867 0.80600005 4281939255
-0.1746819 0.28549334 0.80800003 4281675835
-0.17357144 0.28620002 0.81000006 4281412658
-0.17202859 0.28620002 0.81000006 4281874729
-0.17048572 0.28620002 0.81000006 4282336312
-0.16936 0.28690669 0.81200004 4282729287
-0.16781335 0.28690669 0.81200004 4283123786
-0.16585715 0.28620002 0.81000006 4283387726
-0.16472001 0.28690669 0.81200004 4283716943
-0.16317333 0.28690669 0.81200004 4283782737
-0.16162667 0.28690669 0.81200004 4283848788
-0.15968573 0.28620002 0.81000006 4283979607
-0.15814288 0.28620002 0.81000006 4284110423
-0.079397149 0.49926001 1.4130001 4283128662
-0.074014291 0.49926001 1.4130001 4285623119
-0.071322866 0.49926001 1.4130001 4285358674
-0.068631433 0.49926001 1.4130001 4285028694
-0.062860005 0.47594005 1.3470001 4284634430
-0.060294289 0.47594005 1.3470001 4284896294
-0.05794286 0.4777067 1.3520001 4285092659
-0.055162862 0.47594005 1.3470001 4284166720
-0.052597146 0.47594005 1.3470001 4283241001
-0.049845714 0.47417331 1.342 4283187218
-0.047289524 0.47417331 1.342 4283128607
-0.044533335 0.47205335 1.3360001 4283849516
-0.041988574 0.47205335 1.3360001 4284635954
-0.039296191 0.4702867 1.3310001 4283978808
-0.03662286 0.46852005 1.3260001 4283321659
-0.033840001 0.46498671 1.3160001 4281808190
-0.031333335 0.46498671 1.3160001 4280360479
-0.028717143 0.46322003 1.3110001 4279505153
-0.026220001 0.46322003 1.3110001 4278649899
-0.023722859 0.46322003 1.3110001 4281805141
-0.021225717 0.46322003 1.3110001 4285025922
-0.018728573 0.46322003 1.3110001 4286946479
-0.016293336 0.46498671 1.3160001 4288932556
-0.013734287 0.46322003 1.3110001 4291425514
-0.011237144 0.46322003 1.3110001 4293983980
-0.0087400004 0.46322003 1.3110001 4294376431
-0.0062428573 0.46322003 1.3110001 4294769133
-0.0037457147 0.46322003 1.3110001 4294835179
-0.0012438096 0.46145335 1.3060001 4294901226
0.0012485716 0.46322003 1.3110001 4294900970
0.0037457147 0.46322003 1.3110001 4294900713
0.0062428573 0.46322003 1.3110001 4294835177
0.0087400004 0.46322003 1.3110001 4294769650
0.011237144 0.46322003 1.3110001 4294769915
0.013734287 0.46322003 1.3110001 4294835964
0.016231429 0.46322003 1.3110001 4294835966
0.018728573 0.46322003 1.3110001 4294835964
0.021225717 0.46322003 1.3110001 4294835707
0.023722859 0.46322003 1.3110001 4294835706
0.026220001 0.46322003 1.3110001 4294835706
0.028717143 0.46322003 1.3110001 4294901500
0.031214288 0.46322003 1.3110001 4294901502
0.033582862 0.46145335 1.3060001 4294901501
0.036070481 0.46145335 1.3060001 4294901501
0.038558099 0.46145335 1.3060001 4294901501
0.041045718 0.46145335 1.3060001 4294901502
0.043533336 0.46145335 1.3060001 4294901502
0.046020955 0.46145335 1.3060001 4294901502
0.048508577 0.46145335 1.3060001 4294901501
0.051191431 0.46322003 1.3110001 4294901501
0.053688575 0.46322003 1.3110001 4294901501
0.056185719 0.46322003 1.3110001 4294901502
0.058682859 0.46322003 1.3110001 4294901502
0.061180007 0.46322003 1.3110001 4294901502
0.063677147 0.46322003 1.3110001 4294901502
0.066174291 0.46322003 1.3110001 4294901502
0.068671428 0.46322003 1.3110001 4294901502
0.071168572 0.46322003 1.3110001 4294901502
0.073665723 0.46322003 1.3110001 4294901502
0.076162867 0.46322003 1.3110001 4294901502
0.078660011 0.46322003 1.3110001 4294901502
0.081157148 0.46322003 1.3110001 4294901502
0.083654292 0.46322003 1.3110001 4294901502
0.086151436 0.46322003 1.3110001 4294901502
0.08864858 0.46322003 1.3110001 4294901502
0.091145724 0.46322003 1.3110001 4294901502
0.093285725 0.46145335 1.3060001 4294901502
0.096140005 0.46322003 1.3110001 4294901502
0.098637149 0.46322003 1.3110001 4294901502
0.10113429 0.46322003 1.3110001 4294901502
0.10363144 0.46322003 1.3110001 4294901502
0.10612858 0.46322003 1.3110001 4294901502
0.10862572 0.46322003 1.3110001 4294901502
0.11112286 0.46322003 1.3110001 4294901502
0.11362001 0.46322003 1.3110001 4294901502
0.11611715 0.46322003 1.3110001 4294901502
0.11816191 0.46145335 1.3060001 4294901502
0.12111144 0.46322003 1.3110001 4294901502
0.12313715 0.46145335 1.3060001 4294901502
0.12610573 0.46322003 1.3110001 4294901502
0.12860286 0.46322003 1.3110001 4294901502
0.13110001 0.46322003 1.3110001 4294901502
0.13359715 0.46322003 1.3110001 4294901502
0.1360943 0.46322003 1.3110001 4294901502
0.13859144 0.46322003 1.3110001 4294901502
0.14108858 0.46322003 1.3110001 4294901502
0.14413334 0.46498671 1.3160001 4294901502
0.14608286 0.46322003 1.3110001 4294901502
0.14858001 0.46322003 1.3110001 4294901502
0.15107715 0.46322003 1.3110001 4294901502
0.15357429 0.46322003 1.3110001 4294901502
0.15607144 0.46322003 1.3110001 4294901502
0.15856858 0.46322003 1.3110001 4294901502
0.16106573 0.46322003 1.3110001 4294901502
0.16356286 0.46322003 1.3110001 4294901502
0.16606002 0.46322003 1.3110001 4294901502
0.16855715 0.46322003 1.3110001 4294901502
0.17105429 0.46322003 1.3110001 4294901502
0.17355144 0.46322003 1.3110001 4294901502
0.17604858 0.46322003 1.3110001 4294901502
0.17854573 0.46322003 1.3110001 4294901502
0.18104286 0.46322003 1.3110001 4294901502
0.18354 0.46322003 1.3110001 4294901502
0.18603715 0.46322003 1.3110001 4294442750
0.18925335 0.46498671 1.3160001 4294049502
0.1924886 0.46675336 1.3210001 4290373054
0.19574288 0.46852005 1.3260001 4286762335
0.19826859 0.46852005 1.3260001 4285556481
0.20003715 0.46675336 1.3210001 4284350721
0.20332001 0.46852005 1.3260001 4284493057
0.20832953 0.47417331 1.342 4284641111
0.21167144 0.47594005 1.3470001 4288787374
0.2150324 0.4777067 1.3520001 4292999106
0.2193781 0.48159334 1.363 4291680727
0.22278857 0.48336002 1.368 4290428018
0.22819526 0.48936668 1.3850001 4287259918
0.23166668 0.49113339 1.3900001 4284154181
0.23718001 0.49713999 1.4070001 4285809789
0.24088287 0.49926001 1.4130001 4287457889
-0.38269907 0.23516764 0.66200006 4287335052
-0.38316667 0.23623334 0.66500002 4287334545
-0.38190001 0.23623334 0.66500002 4287334295
-0.38120571 0.23658857 0.66600001 4287399827
-0.37993714 0.23658857 0.66600001 4287334543
-0.37923717 0.23694383 0.66700006 4287334544
-0.37910002 0.2376543 0.66900003 4287269010
-0.37839046 0.23800953 0.67000002 4287202956
-0.37767714 0.23836477 0.671 4287135879
-0.37808192 0.23943049 0.67400002 4287137409
-0.37679809 0.23943049 0.67400002 4287006587
-0.37774286 0.24085143 0.67800003 4286940031
-0.3775619 0.2415619 0.68000001 4286939267
-0.37737337 0.24227239 0.68200004 4287003774
-0.37662575 0.24262764 0.68300003 4286150778
-0.37532476 0.24262764 0.68300003 4285296495
-0.37402382 0.24262764 0.68300003 4285295461
-0.37272286 0.24262764 0.68300003 4285360494
-0.37196571 0.24298286 0.68400002 4285294455
-0.37228858 0.24404858 0.68700004 4285294450
-0.38070002 0.25044289 0.70500004 4285033326
-0.37935716 0.25044289 0.70500004 4284836461
-0.37801433 0.25044289 0.70500004 4284639597
-0.37667146 0.25044289 0.70500004 4284441681
-0.37799048 0.25221905 0.71000004 4281610806
-0.37822953 0.25328478 0.71300006 4278850091
-0.37687144 0.25328478 0.71300006 4279442465
-0.37604001 0.25364003 0.71400005 4280032038
-0.37468001 0.25364003 0.71400005 4280032043
-0.37332001 0.25364003 0.71400005 4280097585
-0.37196001 0.25364003 0.71400005 4280293687
-0.37008098 0.25328478 0.71300006 4280556075
-0.36872289 0.25328478 0.71300006 4280359456
-0.45914572 0.41669431 1.1730001 4278914084
-0.45691147 0.41669431 1.1730001 4278784547
-0.45622763 0.41811526 1.177 4278849826
-0.45244288 0.41669431 1.1730001 4278914852
-0.4502086 0.41669431 1.1730001 4278980134
-0.44797432 0.41669431 1.1730001 4279111205
-0.44726002 0.41811526 1.177 4279111973
-0.44350573 0.41669431 1.1730001 4279112226
-0.44127148 0.41669431 1.1730001 4279178271
-0.44053429 0.41811526 1.177 4279243558
-0.43829241 0.41811526 1.177 4279309100
-0.4360505 0.41811526 1.177 4279440167
-0.43380859 0.41811526 1.177 4279636771
-0.43596667 0.42237809 1.189 4279900195
-0.4337019 0.42237809 1.189 4280163876
-0.43143713 0.42237809 1.189 4280493100
-0.4291724 0.42237809 1.189 4280822324
-0.42547145 0.42095718 1.1850001 4281215540
-0.42321432 0.42095718 1.1850001 4280953651
-0.4195362 0.4195362 1.1810001 4280755254
-0.41587335 0.41811526 1.177 4279835960
-0.41363144 0.41811526 1.177 4278981938
-0.41138953 0.41811526 1.177 4279045677
-0.40914762 0.41811526 1.177 4279178039
-0.40690571 0.41811526 1.177 4279572802
-0.4046638 0.41811526 1.177 4279972164
-0.40378955 0.4195362 1.1810001 4280692037
-0.40154004 0.4195362 1.1810001 4281411909
-0.3992905 0.4195362 1.1810001 4281148998
-0.40184289 0.4344562 1.223 4279770425
-0.39951333 0.4344562 1.223 4279967041
-0.39718384 0.4344562 1.223 4280230200
-0.39614573 0.43587717 1.2270001 4280297008
-0.39798096 0.44049522 1.24 4280362548
-0.39849052 0.44369239 1.2490001 4280559416
-0.39769718 0.4454686 1.2540001 4280823106
-0.39530861 0.4454686 1.2540001 4281152333
-0.3944867 0.44724479 1.2590001 4281482586
-0.39208859 0.44724479 1.2590001 4281880424
-0.38969049 0.44724479 1.2590001 4282337122
-0.38729239 0.44724479 1.2590001 4282793821
-0.38611713 0.44866571 1.263 4283257437
-0.38371143 0.44866571 1.263 4283719517
-0.38281524 0.4504419 1.268 4284179558
-0.37889999 0.44866571 1.263 4284444015
-0.37649429 0.44866571 1.263 4284706673
-0.36224097 0.4344562 1.223 4285821298
-0.35991144 0.4344562 1.223 4287005829
-0.36021337 0.43765336 1.2320001 4287338648
-0.3578667 0.43765336 1.2320001 4287665812
-0.35407716 0.43587717 1.2270001 4287138961
-0.35174003 0.43587717 1.2270001 4286612871
-0.3494029 0.43587717 1.2270001 4287525246
-0.34848002 0.43765336 1.2320001 4288451228
-0.34613335 0.43765336 1.2320001 4289049787
-0.34378672 0.43765336 1.2320001 4289704375
-0.34254858 0.43907431 1.2360001 4289638323
-0.33771718 0.43587717 1.2270001 4289638070
-0.33674669 0.43765336 1.2320001 4290034873
-0.33548573 0.43907431 1.2360001 4290493620
-0.33313146 0.43907431 1.2360001 4288326575
-0.33184761 0.44049522 1.24 4286223766
-0.3308143 0.44227144 1.245 4286152574
-0.32949811 0.44369239 1.2490001 4286152317
-0.32973811 0.44724479 1.2590001 4286413181
-0.32838002 0.44866571 1.263 4286746522
-0.32597429 0.44866571 1.263 4288332472
-0.32356858 0.44866571 1.263 4289899433
-0.32116285 0.44866571 1.263 4288384923
-0.31875715 0.44866571 1.263 4286941071
-0.18453714 0.28561142 0.80400002 4279384921
-0.18300572 0.28561142 0.80400002 4279697686
-0.18147428 0.28561142 0.80400002 4280031015
-0.17994286 0.28561142 0.80400002 4280758071
-0.17885526 0.28632194 0.80600005 4281479734
-0.17688 0.28561142 0.80400002 4281939254
-0.17622097 0.28703237 0.80800003 4282397742
-0.1746819 0.28703237 0.80800003 4282133286
-0.17357144 0.28774288 0.81000006 4281872938
-0.17202859 0.28774288 0.81000006 4282136879
-0.17048572 0.28774288 0.81000006 4282401852
-0.16894287 0.28774288 0.81000006 4282860873
-0.16740002 0.28774288 0.81000006 4283386448
-0.16585715 0.28774288 0.81000006 4283519830
-0.1643143 0.28774288 0.81000006 4283651157
-0.16277145 0.28774288 0.81000006 4283651412
-0.16122858 0.28774288 0.81000006 4283716949
-0.15968573 0.28774288 0.81000006 4283782742
-0.15814288 0.28774288 0.81000006 4283913815
-0.071020007 0.49982002 1.4070001 4285423680
-0.068340003 0.49982002 1.4070001 4284829739
-0.062860005 0.47850573 1.3470001 4284310594
-0.060294289 0.47850573 1.3470001 4285626714
-0.057728577 0.47850573 1.3470001 4287003227
-0.055162862 0.47850573 1.3470001 4286807132
-0.052597146 0.47850573 1.3470001 4286599993
-0.049845714 0.47672954 1.342 4283771414
-0.047289524 0.47672954 1.342 4281026075
-0.044533335 0.47459811 1.3360001 4283061793
-0.041831434 0.47282195 1.3310001 4285159467
-0.039296191 0.47282195 1.3310001 4285094709
-0.03662286 0.47104573 1.3260001 4285028153
-0.033968575 0.46926954 1.3210001 4283716413
-0.031333335 0.46749336 1.3160001 4282465582
-0.028717143 0.4657172 1.3110001 4280756255
-0.026220001 0.4657172 1.3110001 4279112745
-0.023722859 0.4657172 1.3110001 4278976819
-0.021225717 0.4657172 1.3110001 4278845770
-0.018728573 0.4657172 1.3110001 4280877666
-0.016231429 0.4657172 1.3110001 4282996105
-0.013734287 0.4657172 1.3110001 4287998384
-0.011237144 0.4657172 1.3110001 4293055426
-0.0087400004 0.4657172 1.3110001 4293983956
-0.0062190481 0.46394098 1.3060001 4294901472
-0.0037314286 0.46394098 1.3060001 4294901485
-0.0012438096 0.46394098 1.3060001 4294901483
0.0012438096 0.46394098 1.3060001 4294901482
0.0037314286 0.46394098 1.3060001 4294900971
0.0062190481 0.46394098 1.3060001 4294835179
0.0087400004 0.4657172 1.3110001 4294769648
0.011237144 0.4657172 1.3110001 4294769654
0.013734287 0.4657172 1.3110001 4294769911
0.016231429 0.4657172 1.3110001 4294770425
0.018728573 0.4657172 1.3110001 4294835704
0.021144763 0.46394098 1.3060001 4294833912
0.023632383 0.46394098 1.3060001 4294835446
0.026120001 0.46394098 1.3060001 4294835700
0.028498096 0.46216479 1.3010001 4294901239
0.031095238 0.46394098 1.3060001 4294901498
0.033582862 0.46394098 1.3060001 4294901499
0.036070481 0.46394098 1.3060001 4294901500
0.038558099 0.46394098 1.3060001 4294901501
0.041045718 0.46394098 1.3060001 4294901502
0.043533336 0.46394098 1.3060001 4294901501
0.046020955 0.46394098 1.3060001 4294901501
0.048508577 0.46394098 1.3060001 4294901501
0.050996196 0.46394098 1.3060001 4294901501
0.053483814 0.46394098 1.3060001 4294901501
0.055971432 0.46394098 1.3060001 4294901502
0.058459051 0.46394098 1.3060001 4294901502
0.060946673 0.46394098 1.3060001 4294901502
0.063191436 0.46216479 1.3010001 4294901502
0.065921903 0.46394098 1.3060001 4294901502
0.068409532 0.46394098 1.3060001 4294901502
0.070897147 0.46394098 1.3060001 4294901502
0.073384769 0.46394098 1.3060001 4294901502
0.075872391 0.46394098 1.3060001 4294901502
0.078360006 0.46394098 1.3060001 4294901502
0.081157148 0.4657172 1.3110001 4294901502
0.083335243 0.46394098 1.3060001 4294901502
0.085822865 0.46394098 1.3060001 4294901502
0.08831048 0.46394098 1.3060001 4294901502
0.090798102 0.46394098 1.3060001 4294901502
0.093285725 0.46394098 1.3060001 4294901502
0.095773347 0.46394098 1.3060001 4294901502
0.098260961 0.46394098 1.3060001 4294901502
0.10074858 0.46394098 1.3060001 4294901502
0.1032362 0.46394098 1.3060001 4294901502
0.10572382 0.46394098 1.3060001 4294901502
0.10821144 0.46394098 1.3060001 4294901502
0.11069906 0.46394098 1.3060001 4294901502
0.11318667 0.46394098 1.3060001 4294901502
0.11567429 0.46394098 1.3060001 4294901502
0.11816191 0.46394098 1.3060001 4294901502
0.12064954 0.46394098 1.3060001 4294901502
0.12313715 0.46394098 1.3060001 4294901502
0.12562476 0.46394098 1.3060001 4294901502
0.12811239 0.46394098 1.3060001 4294901502
0.13060001 0.46394098 1.3060001 4294901502
0.13359715 0.4657172 1.3110001 4294901502
0.1360943 0.4657172 1.3110001 4294901502
0.13859144 0.4657172 1.3110001 4294901502
0.14108858 0.4657172 1.3110001 4294901502
0.14358573 0.4657172 1.3110001 4294901502
0.14608286 0.4657172 1.3110001 4294901502
0.14858001 0.4657172 1.3110001 4294901502
0.15107715 0.4657172 1.3110001 4294901502
0.15298858 0.46394098 1.3060001 4294901502
0.15607144 0.4657172 1.3110001 4294901502
0.15856858 0.4657172 1.3110001 4294901502
0.16045144 0.46394098 1.3060001 4294901502
0.16356286 0.4657172 1.3110001 4294901502
0.16542667 0.46394098 1.3060001 4294901502
0.16855715 0.4657172 1.3110001 4294901502
0.17105429 0.4657172 1.3110001 4294901502
0.17355144 0.4657172 1.3110001 4294901502
0.17604858 0.4657172 1.3110001 4294901502
0.17854573 0.4657172 1.3110001 4294901501
0.18104286 0.4657172 1.3110001 4294901500
0.18354 0.4657172 1.3110001 4294901440
0.18603715 0.4657172 1.3110001 4294049413
0.18853429 0.4657172 1.3110001 4293167474
0.19321716 0.47104573 1.3260001 4285863263
0.19574288 0.47104573 1.3260001 4278586419
0.1990162 0.47282195 1.3310001 4279370758
0.20079429 0.47104573 1.3260001 4280167977
0.20408668 0.47282195 1.3310001 4285028685
0.20832953 0.47672954 1.342 4289899916
0.21167144 0.47850573 1.3470001 4292410571
0.2150324 0.48028195 1.3520001 4294894755
0.21857335 0.48241335 1.358 4290420348
0.22376572 0.48809716 1.3740001 4285954126
0.22638287 0.48809716 1.3740001 4285551391
0.23166668 0.49378097 1.3900001 4285151296
0.23718001 0.49982002 1.4070001 4285406818
0.23986001 0.49982002 1.4070001 4285683269
-0.38443333 0.23750001 0.66500002 4287203719
-0.38374284 0.23785713 0.66600001 4287137680
-0.38247427 0.23785713 0.66600001 4287203226
-0.38177812 0.2382143 0.66700006 4287334291
-0.38050765 0.2382143 0.66700006 4287269004
-0.37923717 0.2382143 0.66700006 4287269008
-0.37796667 0.2382143 0.66700006 4287203476
-0.37669623 0.2382143 0.66700006 4287138188
-0.37767714 0.23964286 0.671 4287072389
-0.37808192 0.2407143 0.67400002 4287006843
-0.37903431 0.24214287 0.67800003 4287006833
-0.37830001 0.24249999 0.67900002 4287007606
-0.37700668 0.24249999 0.67900002 4287007868
-0.37626669 0.24285714 0.68000001 4287073665
-0.37607431 0.24357145 0.68200004 4286347654
-0.37532476 0.24392857 0.68300003 4285624175
-0.37402382 0.24392857 0.68300003 4285491801
-0.37272286 0.24392857 0.68300003 4285359977
-0.37305334 0.24500002 0.68600005 4285359993
-0.37228858 0.24535714 0.68700004 4285294452
-0.38178003 0.2525 0.70700002 4285097328
-0.38043335 0.2525 0.70700002 4284834926
-0.37908667 0.2525 0.70700002 4284703852
-0.37827426 0.25285715 0.708 4284507475
-0.37799048 0.25357142 0.71000004 4281940794
-0.37822953 0.25464287 0.71300006 4279376949
-0.37687144 0.25464287 0.71300006 4279638576
-0.37604001 0.25500003 0.71400005 4279968046
-0.37468001 0.25500003 0.71400005 4279901996
-0.37279719 0.25464287 0.71300006 4279835958
-0.3714391 0.25464287 0.71300006 4280032064
-0.36904287 0.25392857 0.71100003 4280163127
-0.36717147 0.25357142 0.71000004 4280031791
-0.36478859 0.25285715 0.708 4279901753
-0.36344001 0.25285715 0.708 4279966276
-0.45914572 0.41892859 1.1730001 4278979874
-0.45691147 0.41892859 1.1730001 4278915108
-0.45622763 0.42035717 1.177 4279046182
-0.45398575 0.42035717 1.177 4279111208
-0.45174384 0.42035717 1.177 4279176747
-0.44950193 0.42035717 1.177 4279242279
-0.44726002 0.42035717 1.177 4279111716
-0.44350573 0.41892859 1.1730001 4279046692
-0.44127148 0.41892859 1.1730001 4278915876
-0.43903717 0.41892859 1.1730001 4278785063
-0.43680289 0.41892859 1.1730001 4278981163
-0.4360505 0.42035717 1.177 4279242793
-0.43380859 0.42035717 1.177 4279636520
-0.43596667 0.42464286 1.189 4279965995
-0.4337019 0.42464286 1.189 4280230191
-0.43143713 0.42464286 1.189 4280427571
-0.42772859 0.42321432 1.1850001 4280623672
-0.42547145 0.42321432 1.1850001 4280820022
-0.42321432 0.42321432 1.1850001 4280229429
-0.4195362 0.42178574 1.1810001 4279704363
-0.41728669 0.42178574 1.1810001 4279441697
-0.41503716 0.42178574 1.1810001 4279111470
-0.41138953 0.42035717 1.177 4279243579
-0.40914762 0.42035717 1.177 4279376443
-0.40690571 0.42035717 1.177 4279770940
-0.4046638 0.42035717 1.177 4280166974
-0.40242192 0.42035717 1.177 4280560192
-0.40154004 0.42178574 1.1810001 4280885821
-0.3992905 0.42178574 1.1810001 4280688954
-0.39569619 0.42035717 1.177 4280488501
-0.39345428 0.42035717 1.177 4279963953
-0.40184289 0.43678573 1.223 4279835440
-0.39951333 0.43678573 1.223 4279966517
-0.39718384 0.43678573 1.223 4280163378
-0.39614573 0.4382143 1.2270001 4280163632
-0.39798096 0.44285715 1.24 4280098354
-0.39721429 0.44464284 1.245 4280361525
-0.39484283 0.44464284 1.245 4280559937
-0.3937324 0.44607145 1.2490001 4280888653
-0.3944867 0.44964287 1.2590001 4281151829
-0.3933343 0.45107141 1.263 4281481053
-0.38969049 0.44964287 1.2590001 4281810525
-0.38729239 0.44964287 1.2590001 4282862173
-0.38489428 0.44964287 1.2590001 4283915107
-0.37945813 0.44607145 1.2490001 4284179306
-0.37707907 0.44607145 1.2490001 4284508017
-0.37470001 0.44607145 1.2490001 4284772217
-0.36576289 0.4382143 1.2270001 4285037425
-0.36224097 0.43678573 1.223 4286157162
-0.35991144 0.43678573 1.223 4287276929
-0.35641241 0.43535715 1.2190001 4287207064
-0.35409051 0.43535715 1.2190001 4287206295
-0.35407716 0.4382143 1.2270001 4286677654
-0.35059336 0.43678573 1.223 4286217614
-0.3482638 0.43678573 1.223 4287859078
-0.34706575 0.4382143 1.2270001 4289511840
-0.34472859 0.4382143 1.2270001 4289508027
-0.34239146 0.4382143 1.2270001 4289571514
-0.3400543 0.4382143 1.2270001 4289637305
-0.33909336 0.44000003 1.2320001 4289768639
-0.33674669 0.44000003 1.2320001 4289706437
-0.33548573 0.4414286 1.2360001 4289640880
-0.33313146 0.4414286 1.2360001 4287861660
-0.33184761 0.44285715 1.24 4286078607
-0.3308143 0.44464284 1.245 4286283394
-0.32949811 0.44607145 1.2490001 4286480259
-0.32842857 0.44785717 1.2540001 4287336068
-0.32838002 0.45107141 1.263 4288257704
-0.32597429 0.45107141 1.263 4288323020
-0.32356858 0.45107141 1.263 4288388521
-0.32243428 0.45285714 1.268 4287661703
-0.32001904 0.45285714 1.268 4286939273
-0.18453714 0.28714284 0.80400002 4278780233
-0.18300572 0.28714284 0.80400002 4279700524
-0.18147428 0.28714284 0.80400002 4280626487
-0.17994286 0.28714284 0.80400002 4280955202
-0.17841142 0.28714284 0.80400002 4281349693
-0.17688 0.28714284 0.80400002 4281414969
-0.17534856 0.28714284 0.80400002 4281545765
-0.1746819 0.28857142 0.80800003 4281743121
-0.17314287 0.28857142 0.80800003 4281940771
-0.17160381 0.28857142 0.80800003 4282203445
-0.17006476 0.28857142 0.80800003 4282533184
-0.16852573 0.28857142 0.80800003 4282926924
-0.16698666 0.28857142 0.80800003 4283321429
-0.16503811 0.28785717 0.80600005 4283387999
-0.16350286 0.28785717 0.80600005 4283519835
-0.16196762 0.28785717 0.80600005 4283519576
-0.16043238 0.28785717 0.80600005 4283585111
-0.15889715 0.28785717 0.80600005 4283650646
-0.15736191 0.28785717 0.80600005 4283716439
-0.063093342 0.48285717 1.3520001 4287597383
-0.060294289 0.48107147 1.3470001 4288323726
-0.057728577 0.48107147 1.3470001 4289115523
-0.055162862 0.48107147 1.3470001 4288851577
-0.052597146 0.48107147 1.3470001 4288653129
-0.049845714 0.47928572 1.342 4286341146
-0.047289524 0.47928572 1.342 4283969816
-0.044533335 0.47714287 1.3360001 4282991383
-0.041831434 0.47535717 1.3310001 4282012965
-0.039296191 0.47535717 1.3310001 4283586867
-0.03662286 0.47357145 1.3260001 4285226296
-0.033968575 0.47178572 1.3210001 4284504381
-0.031333335 0.47000003 1.3160001 4283782717
-0.028717143 0.4682143 1.3110001 4282466877
-0.026220001 0.4682143 1.3110001 4281216551
-0.023722859 0.4682143 1.3110001 4280620818
-0.021144763 0.46642861 1.3060001 4280025363
-0.018657144 0.46642861 1.3060001 4280287509
-0.016231429 0.4682143 1.3110001 4280615238
-0.013734287 0.4682143 1.3110001 4283120503
-0.011237144 0.4682143 1.3110001 4285625752
-0.0087066675 0.46642861 1.3060001 4287278266
-0.0062190481 0.46642861 1.3060001 4288930772
-0.0037314286 0.46642861 1.3060001 4291031279
-0.0012390477 0.46464288 1.3010001 4293066477
0.0012438096 0.46642861 1.3060001 4293983979
0.0037171431 0.46464288 1.3010001 4294901484
0.0062190481 0.46642861 1.3060001 4294835694
0.0087066675 0.46642861 1.3060001 4294835439
0.011194286 0.46642861 1.3060001 4294835185
0.013681905 0.46642861 1.3060001 4294834930
0.016169524 0.46642861 1.3060001 4294835956
0.018657144 0.46642861 1.3060001 4294835444
0.021063812 0.46464288 1.3010001 4294835445
0.023632383 0.46642861 1.3060001 4294835442
0.02592 0.46285713 1.296 4294835695
0.028388571 0.46285713 1.296 4294835699
0.030857144 0.46285713 1.296 4294835703
0.033325713 0.46285713 1.296 4294835961
0.035932384 0.46464288 1.3010001 4294835963
0.038410481 0.46464288 1.3010001 4294835964
0.040888574 0.46464288 1.3010001 4294835966
0.043366671 0.46464288 1.3010001 4294835965
0.045844767 0.46464288 1.3010001 4294835964
0.048322864 0.46464288 1.3010001 4294835965
0.050800957 0.46464288 1.3010001 4294835966
0.05327905 0.46464288 1.3010001 4294901502
0.055757146 0.46464288 1.3010001 4294901502
0.058235243 0.46464288 1.3010001 4294901502
0.060713336 0.46464288 1.3010001 4294901502
0.063191436 0.46464288 1.3010001 4294901502
0.065921903 0.46642861 1.3060001 4294901502
0.068409532 0.46642861 1.3060001 4294901502
0.070897147 0.46642861 1.3060001 4294901502
0.073384769 0.46642861 1.3060001 4294901502
0.075872391 0.46642861 1.3060001 4294901502
0.078360006 0.46642861 1.3060001 4294901502
0.080847628 0.46642861 1.3060001 4294901502
0.083335243 0.46642861 1.3060001 4294901502
0.085822865 0.46642861 1.3060001 4294901502
0.08831048 0.46642861 1.3060001 4294901502
0.090450481 0.46464288 1.3010001 4294901502
0.092928581 0.46464288 1.3010001 4294901502
0.095406674 0.46464288 1.3010001 4294901502
0.097884767 0.46464288 1.3010001 4294901502
0.10036287 0.46464288 1.3010001 4294901502
0.10284096 0.46464288 1.3010001 4294901502
0.10531905 0.46464288 1.3010001 4294901502
0.10779715 0.46464288 1.3010001 4294901502
0.11069906 0.46642861 1.3060001 4294901502
0.11318667 0.46642861 1.3060001 4294901502
0.11523144 0.46464288 1.3010001 4294901502
0.11770953 0.46464288 1.3010001 4294901502
0.12064954 0.46642861 1.3060001 4294901502
0.12313715 0.46642861 1.3060001 4294901502
0.12562476 0.46642861 1.3060001 4294901502
0.12811239 0.46642861 1.3060001 4294901502
0.13060001 0.46642861 1.3060001 4294901502
0.13308764 0.46642861 1.3060001 4294901502
0.13557525 0.46642861 1.3060001 4294901502
0.13806288 0.46642861 1.3060001 4294901502
0.14055049 0.46642861 1.3060001 4294901502
0.14303811 0.46642861 1.3060001 4294901502
0.14496858 0.46464288 1.3010001 4294901502
0.14744668 0.46464288 1.3010001 4294901502
0.14992478 0.46464288 1.3010001 4294901502
0.15240286 0.46464288 1.3010001 4294901502
0.1554762 0.46642861 1.3060001 4294901502
0.15796383 0.46642861 1.3060001 4294901502
0.16045144 0.46642861 1.3060001 4294901502
0.16293906 0.46642861 1.3060001 4294901502
0.16542667 0.46642861 1.3060001 4294901502
0.1679143 0.46642861 1.3060001 4294901502
0.17040192 0.46642861 1.3060001 4294901502
0.17288953 0.46642861 1.3060001 4294901502
0.17537715 0.46642861 1.3060001 4294508286
0.17786478 0.46642861 1.3060001 4294180604
0.18035239 0.46642861 1.3060001 4291624442
0.18284 0.46642861 1.3060001 4289133955
0.18603715 0.4682143 1.3110001 4287397644
0.18853429 0.4682143 1.3110001 4285661446
0.19321716 0.47357145 1.3260001 4283236609
0.19574288 0.47357145 1.3260001 4280746246
0.1990162 0.47535717 1.3310001 4282857740
0.20155144 0.47535717 1.3310001 4284968530
0.20408668 0.47535717 1.3310001 4288654745
0.20832953 0.47928572 1.342 4292406464
0.21167144 0.48107147 1.3470001 4291289064
0.2150324 0.48285717 1.3520001 4290171525
0.22018285 0.48857144 1.368 4288240674
0.22376572 0.49071428 1.3740001 4286382377
0.22638287 0.49071428 1.3740001 4287262257
0.23083335 0.49464291 1.3850001 4288185660
0.23532572 0.49857143 1.396 4288046151
0.23798476 0.49857143 1.396 4287906601
-0.38443333 0.23876667 0.66500002 4287007113
-0.3820143 0.23804858 0.66300005 4286941326
-0.38190001 0.23876667 0.66500002 4287072404
-0.38063332 0.23876667 0.66500002 4287268749
-0.38050765 0.23948477 0.66700006 4287203461
-0.37923717 0.23948477 0.66700006 4287203212
-0.37796667 0.23948477 0.66700006 4287137427
-0.37782571 0.24020287 0.66900003 4287138190
-0.37767714 0.24092095 0.671 4287006858
-0.37696004 0.24128002 0.67200005 4286941314
-0.37791622 0.24271621 0.67600006 4287007099
-0.37774286 0.2434343 0.67800003 4287072638
-0.37700668 0.24379334 0.67900002 4287138177
-0.37571335 0.24379334 0.67900002 4287202434
-0.37607431 0.24487048 0.68200004 4286544772
-0.37587428 0.24558859 0.68400002 4285952117
-0.37457144 0.24558859 0.68400002 4285688422
-0.37436002 0.24630667 0.68600005 4285425517
-0.37359715 0.24666573 0.68700004 4285360244
-0.37337241 0.2473838 0.68900001 4285359984
-0.38178003 0.25384668 0.70700002 4285097835
-0.38043335 0.25384668 0.70700002 4284900455
-0.37908667 0.25384668 0.70700002 4284769635
-0.37934288 0.25492382 0.71000004 4284638293
-0.37799048 0.25492382 0.71000004 4282270791
-0.37716857 0.25528285 0.71100003 4279903536
-0.37687144 0.25600097 0.71300006 4279900442
-0.37551335 0.25600097 0.71300006 4279901474
-0.37468001 0.25635999 0.71400005 4279771433
-0.37279719 0.25600097 0.71300006 4279639345
-0.3714391 0.25600097 0.71300006 4279704378
-0.36904287 0.25528285 0.71100003 4279835442
-0.36717147 0.25492382 0.71000004 4279704362
-0.36478859 0.25420573 0.708 4279638568
-0.36344001 0.25420573 0.708 4279900710
-0.46138003 0.4211629 1.1730001 4278913562
-0.45914572 0.4211629 1.1730001 4278980376
-0.45691147 0.4211629 1.1730001 4279111711
-0.45467716 0.4211629 1.1730001 4279243558
-0.45398575 0.42259905 1.177 4279373860
-0.45174384 0.42259905 1.177 4279373602
-0.44950193 0.42259905 1.177 4279439903
-0.44726002 0.42259905 1.177 4279178779
-0.44350573 0.4211629 1.1730001 4278981403
-0.44127148 0.4211629 1.1730001 4278653212
-0.43903717 0.4211629 1.1730001 4278325531
-0.43680289 0.4211629 1.1730001 4278718746
-0.4337019 0.4269076 1.189 4280231218
-0.43143713 0.4269076 1.189 4280427316
-0.42628479 0.42403525 1.1810001 4280426294
-0.42403525 0.42403525 1.1810001 4280426292
-0.42035717 0.42259905 1.177 4279574578
-0.41811526 0.42259905 1.177 4278720300
-0.41587335 0.42259905 1.177 4278981926
-0.41363144 0.42259905 1.177 4279309869
-0.41138953 0.42259905 1.177 4279441459
-0.40914762 0.42259905 1.177 4279574063
-0.40690571 0.42259905 1.177 4279969067
-0.4046638 0.42259905 1.177 4280428082
-0.40242192 0.42259905 1.177 4280428344
-0.40018001 0.42259905 1.177 4280426295
-0.3992905 0.42403525 1.1810001 4280229174
-0.39569619 0.42259905 1.177 4280029490
-0.39345428 0.42259905 1.177 4279376430
-0.39951333 0.43911526 1.223 4280033086
-0.39718384 0.43911526 1.223 4280164151
-0.39614573 0.44055146 1.2270001 4280033072
-0.39669716 0.44378287 1.2360001 4279901741
-0.39561903 0.44521904 1.24 4280098347
-0.39325714 0.44521904 1.24 4280362811
-0.39089525 0.44521904 1.24 4280625228
-0.38853332 0.44521904 1.24 4280888143
-0.38772857 0.44701427 1.245 4281085779
-0.38535714 0.44701427 1.245 4281352282
-0.38421622 0.44845048 1.2490001 4282930529
-0.38183716 0.44845048 1.2490001 4284572518
-0.37945813 0.44845048 1.2490001 4284705643
-0.37587142 0.44701427 1.245 4284903024
-0.37349999 0.44701427 1.245 4285166197
-0.36725336 0.44234672 1.2320001 4285433215
-0.36342576 0.44055146 1.2270001 4286488457
-0.35726288 0.43588385 1.2140001 4287535756
-0.35495049 0.43588385 1.2140001 4287141264
-0.35525239 0.43911526 1.223 4286746247
-0.35292286 0.43911526 1.223 4286281854
-0.35059336 0.43911526 1.223 4285892241
-0.3482638 0.43911526 1.223 4288258469
-0.3459343 0.43911526 1.223 4290624430
-0.34360477 0.43911526 1.223 4290031799
-0.34127524 0.43911526 1.223 4289440693
-0.33894572 0.43911526 1.223 4289702835
-0.33771718 0.44055146 1.2270001 4289966525
-0.33538005 0.44055146 1.2270001 4289378247
-0.33440003 0.44234672 1.2320001 4288783013
-0.33313146 0.44378287 1.2360001 4287396739
-0.33184761 0.44521904 1.24 4286020738
-0.3308143 0.44701427 1.245 4286414209
-0.32949811 0.44845048 1.2490001 4286808202
-0.32973811 0.45204097 1.2590001 4288257939
-0.32838002 0.45347714 1.263 4289765538
-0.32597429 0.45347714 1.263 4288324016
-0.32356858 0.45347714 1.263 4286877599
-0.32116285 0.45347714 1.263 4286938765
-0.32001904 0.45527238 1.268 4287004554
-0.18453714 0.28867429 0.80400002 4278259763
-0.18300572 0.28867429 0.80400002 4279768883
-0.18102285 0.28795618 0.80200005 4281281854
-0.17994286 0.28867429 0.80400002 4281218121
-0.17796762 0.28795618 0.80200005 4281218369
-0.17688 0.28867429 0.80400002 4280955194
-0.17534856 0.28867429 0.80400002 4280758570
-0.17424953 0.28939241 0.80600005 4281350683
-0.17271429 0.28939241 0.80600005 4282006824
-0.17117906 0.28939241 0.80600005 4282335541
-0.16964382 0.28939241 0.80600005 4282729022
-0.16810858 0.28939241 0.80600005 4282992966
-0.16657335 0.28939241 0.80600005 4283255632
-0.16462857 0.28867429 0.80400002 4283321689
-0.16350286 0.28939241 0.80600005 4283387736
-0.16196762 0.28939241 0.80600005 4283388247
-0.16043238 0.28939241 0.80600005 4283453527
-0.15889715 0.28939241 0.80600005 4283453272
-0.15736191 0.28939241 0.80600005 4283518808
-0.062860005 0.48363715 1.3470001 4290950784
-0.060294289 0.48363715 1.3470001 4291088031
-0.057514284 0.48184189 1.342 4291213722
-0.054958098 0.48184189 1.342 4290952086
-0.052401904 0.48184189 1.342 4290753139
-0.049845714 0.48184189 1.342 4288845393
-0.047078099 0.47968763 1.3360001 4286996286
-0.044533335 0.47968763 1.3360001 4282919210
-0.041988574 0.47968763 1.3360001 4278929957
-0.039296191 0.47789243 1.3310001 4282142495
-0.03662286 0.47609717 1.3260001 4285421358
-0.033968575 0.47430193 1.3210001 4285232700
-0.031452384 0.47430193 1.3210001 4285097791
-0.028936192 0.47430193 1.3210001 4284176706
-0.026220001 0.47071147 1.3110001 4283321909
-0.023722859 0.47071147 1.3110001 4282270505
-0.021144763 0.46891621 1.3060001 4281280555
-0.018657144 0.46891621 1.3060001 4279766572
-0.016231429 0.47071147 1.3110001 4278257460
-0.013734287 0.47071147 1.3110001 4278255932
-0.011194286 0.46891621 1.3060001 4278256206
-0.0087066675 0.46891621 1.3060001 4280615777
-0.0062190481 0.46891621 1.3060001 4282993543
-0.0037171431 0.46712101 1.3010001 4287141037
-0.0012390477 0.46712101 1.3010001 4291282628
0.0012390477 0.46712101 1.3010001 4293065179
0.0037028571 0.46532571 1.296 4294900704
0.0061952388 0.46712101 1.3010001 4294901477
0.0087066675 0.46891621 1.3060001 4294901484
0.011194286 0.46891621 1.3060001 4294901491
0.013629524 0.46712101 1.3010001 4294901493
0.016107621 0.46712101 1.3010001 4294901496
0.018585715 0.46712101 1.3010001 4294901239
0.020982856 0.46532571 1.296 4294834934
0.023451429 0.46532571 1.296 4294835702
0.02592 0.46532571 1.296 4294835958
0.028388571 0.46532571 1.296 4294835702
0.030857144 0.46532571 1.296 4294767863
0.033325713 0.46532571 1.296 4294770424
0.035794284 0.46532571 1.296 4294770170
0.038410481 0.46712101 1.3010001 4294835706
0.040888574 0.46712101 1.3010001 4294835706
0.043366671 0.46712101 1.3010001 4294835963
0.045844767 0.46712101 1.3010001 4294833915
0.048322864 0.46712101 1.3010001 4294835964
0.050800957 0.46712101 1.3010001 4294835965
0.05327905 0.46712101 1.3010001 4294901499
0.055757146 0.46712101 1.3010001 4294901498
0.058235243 0.46712101 1.3010001 4294901500
