# .PCD v0.7 - Point Cloud Data file format
VERSION 0.7
FIELDS x y z rgba
SIZE 4 4 4 4
TYPE F F F U
COUNT 1 1 1 1
WIDTH 1078
HEIGHT 1
VIEWPOINT 0 0 0 1 0 0 0
POINTS 1078
DATA ascii
-0.24174 0.23858002 0.55300003 4280625191
-0.21085715 0.25885716 0.60000002 4282401611
-0.20971429 0.25885716 0.60000002 4282533457
-0.20742857 0.25885716 0.60000002 4282795846
-0.20594192 0.25842571 0.59900004 4282926919
-0.20480096 0.25842571 0.59900004 4283058247
-0.19976096 0.25928855 0.60100001 4282862143
-0.19861619 0.25928855 0.60100001 4282730809
-0.19747142 0.25928855 0.60100001 4282599477
-0.19632667 0.25928855 0.60100001 4282401073
-0.19550668 0.25972003 0.60200006 4282269749
-0.19436002 0.25972003 0.60200006 4282203961
-0.19321336 0.25972003 0.60200006 4282137914
-0.19206668 0.25972003 0.60200006 4282137660
-0.19060287 0.25928855 0.60100001 4282136886
-0.18914287 0.25885716 0.60000002 4281743153
-0.18800001 0.25885716 0.60000002 4281414439
-0.18685715 0.25885716 0.60000002 4281085469
-0.1857143 0.25885716 0.60000002 4280756758
-0.18457143 0.25885716 0.60000002 4280428303
-0.18342857 0.25885716 0.60000002 4280163596
-0.18228573 0.25885716 0.60000002 4280031497
-0.18114287 0.25885716 0.60000002 4279965968
-0.17999999 0.25885716 0.60000002 4279701272
-0.17855906 0.25842571 0.59900004 4279438369
-0.17741811 0.25842571 0.59900004 4281615659
-0.17598286 0.25799429 0.59800005 4283780419
-0.17484382 0.25799429 0.59800005 4283061339
-0.17370477 0.25799429 0.59800005 4282403378
-0.17285429 0.25842571 0.59900004 4281604106
-0.17200001 0.25885716 0.60000002 4280884241
-0.17057239 0.25842571 0.59900004 4280953111
-0.16943145 0.25842571 0.59900004 4281018393
-0.16857143 0.25885716 0.60000002 4281018138
-0.16742857 0.25885716 0.60000002 4281084441
-0.15434097 0.25799429 0.59800005 4281810479
-0.15320192 0.25799429 0.59800005 4282137134
-0.15206286 0.25799429 0.59800005 4281940013
-0.15092382 0.25799429 0.59800005 4281807916
-0.14953429 0.25756288 0.597 4281479980
-0.14864573 0.25799429 0.59800005 4281152045
-0.14750668 0.25799429 0.59800005 4281610542
-0.14636764 0.25799429 0.59800005 4282135347
-0.14425716 0.25626859 0.59400004 4281939257
-0.14312573 0.25626859 0.59400004 4281742642
-0.14390668 0.25972003 0.60200006 4281611819
-0.14276001 0.25972003 0.60200006 4281479984
-0.14161335 0.25972003 0.60200006 4281217077
-0.14046669 0.25972003 0.60200006 4280954416
-0.13955143 0.26015145 0.60300004 4280691754
-0.13840286 0.26015145 0.60300004 4280494124
-0.13679905 0.25928855 0.60100001 4281084462
-0.13565429 0.25928855 0.60100001 4281673771
-0.13428572 0.25885716 0.60000002 4281018152
-0.13314286 0.25885716 0.60000002 4280428321
-0.132 0.25885716 0.60000002 4280559387
-0.13042097 0.25799429 0.59800005 4280690200
-0.12906571 0.25756288 0.597 4280690198
-0.12792857 0.25756288 0.597 4280691473
-0.12679142 0.25756288 0.597 4280757773
-0.12607525 0.25842571 0.59900004 4280887319
-0.1249343 0.25842571 0.59900004 4281280800
-0.12379333 0.25842571 0.59900004 4281674021
-0.12265238 0.25842571 0.59900004 4281280810
-0.12171429 0.25885716 0.60000002 4280953382
-0.12057143 0.25885716 0.60000002 4281084707
-0.11942858 0.25885716 0.60000002 4281281318
-0.11808857 0.25842571 0.59900004 4281216041
-0.1163619 0.25713143 0.59600002 4281150762
-0.11522667 0.25713143 0.59600002 4280756267
-0.11409143 0.25713143 0.59600002 4280428069
-0.11314572 0.25756288 0.597 4280426783
-0.11200857 0.25756288 0.597 4280428322
-0.11161429 0.25928855 0.60100001 4280558630
-0.11046953 0.25928855 0.60100001 4280757543
-0.10932476 0.25928855 0.60100001 4280823335
-0.10818 0.25928855 0.60100001 4280888874
-0.10703523 0.25928855 0.60100001 4281151277
-0.10589048 0.25928855 0.60100001 4281412901
-0.10474572 0.25928855 0.60100001 4281150493
-0.10342857 0.25885716 0.60000002 4280888098
-0.10228571 0.25885716 0.60000002 4281610535
-0.10131142 0.25928855 0.60100001 4282330908
-0.10033335 0.25972003 0.60200006 4280757777
-0.099021904 0.25928855 0.60100001 4279249432
-0.097551435 0.25842571 0.59900004 4280362272
-0.096571431 0.25885716 0.60000002 4281477419
-0.095428571 0.25885716 0.60000002 4281151030
-0.094285719 0.25885716 0.60000002 4280822827
-0.092987627 0.25842571 0.59900004 4280494624
-0.092000008 0.25885716 0.60000002 4280166937
-0.090857141 0.25885716 0.60000002 4280495378
-0.089863814 0.25928855 0.60100001 4280823076
-0.089014292 0.26015145 0.60300004 4281019703
-0.087720007 0.25972003 0.60200006 4281217328
-0.086429521 0.25928855 0.60100001 4281218857
-0.085568577 0.26015145 0.60300004 4281282088
-0.084420003 0.26015145 0.60300004 4281084456
-0.083271429 0.26015145 0.60300004 4280952860
-0.082122862 0.26015145 0.60300004 4280952081
-0.08110857 0.26058286 0.60400003 4280952861
-0.079825722 0.26015145 0.60300004 4281215529
-0.078677148 0.26015145 0.60300004 4281542948
-0.077528574 0.26015145 0.60300004 4281215008
-0.07625334 0.25972003 0.60200006 4280953378
-0.075106673 0.25972003 0.60200006 4280951844
-0.073837139 0.25928855 0.60100001 4280952359
-0.072571434 0.25885716 0.60000002 4280821033
-0.071428567 0.25885716 0.60000002 4280756257
-0.07016857 0.25842571 0.59900004 4280559642
-0.069027625 0.25842571 0.59900004 4280429085
-0.067886673 0.25842571 0.59900004 4280626209
-0.066745721 0.25842571 0.59900004 4280888614
-0.065604761 0.25842571 0.59900004 4281020203
-0.065109529 0.26101428 0.60500002 4281151791
-0.063851431 0.26058286 0.60400003 4281283380
-0.062700957 0.26058286 0.60400003 4281479721
-0.061346676 0.25972003 0.60200006 4281283102
-0.060200006 0.25972003 0.60200006 4281085720
-0.059151433 0.26015145 0.60300004 4281282066
-0.058002859 0.26015145 0.60300004 4281543197
-0.057042856 0.26101428 0.60500002 4281215528
-0.055982858 0.26144573 0.60600001 4280887842
-0.054828569 0.26144573 0.60600001 4280625692
-0.053762861 0.26187718 0.60700005 4280429088
-0.052606668 0.26187718 0.60700005 4280429092
-0.051365715 0.26144573 0.60600001 4280429086
-0.05021143 0.26144573 0.60600001 4280429337
-0.048976194 0.26101428 0.60500002 4280429073
-0.047665719 0.26015145 0.60300004 4280560137
-0.046362858 0.25928855 0.60100001 4280691214
-0.045218095 0.25928855 0.60100001 4281086226
-0.044073332 0.25928855 0.60100001 4281544978
-0.042928573 0.25928855 0.60100001 4281086482
-0.04178381 0.25928855 0.60100001 4280626450
-0.040571429 0.25885716 0.60000002 4280495122
-0.039560005 0.25972003 0.60200006 4280427282
-0.038540956 0.26058286 0.60400003 4280427283
-0.037390478 0.26058286 0.60400003 4280427796
-0.03624 0.26058286 0.60400003 4280624917
-0.035089526 0.26058286 0.60400003 4280887580
-0.033939049 0.26058286 0.60400003 4281019171
-0.032788571 0.26058286 0.60400003 4281149726
-0.031638097 0.26058286 0.60400003 4280755993
-0.030487619 0.26058286 0.60400003 4280427802
-0.029337144 0.26058286 0.60400003 4280427547
-0.028186668 0.26058286 0.60400003 4280428054
-0.027036192 0.26058286 0.60400003 4280297746
-0.025885716 0.26058286 0.60400003 4280165907
-0.02473524 0.26058286 0.60400003 4280296212
-0.023584763 0.26058286 0.60400003 4280428564
-0.022434287 0.26058286 0.60400003 4280626452
-0.021248572 0.26015145 0.60300004 4280888856
-0.020133335 0.26058286 0.60400003 4280954907
-0.018982857 0.26058286 0.60400003 4281085719
-0.017832382 0.26058286 0.60400003 4281347604
-0.016709523 0.26101428 0.60500002 4281608725
-0.015608573 0.26187718 0.60700005 4281346582
-0.014380952 0.26058286 0.60400003 4281084694
-0.013230477 0.26058286 0.60400003 4280888599
-0.012080001 0.26058286 0.60400003 4280691991
-0.010929525 0.26058286 0.60400003 4280954392
-0.0097790482 0.26058286 0.60400003 4281216797
-0.0086285714 0.26058286 0.60400003 4281348129
-0.0074285716 0.25885716 0.60000002 4281544215
-0.0062857145 0.25885716 0.60000002 4281281293
-0.0051428573 0.25885716 0.60000002 4281084431
-0.0039866669 0.25799429 0.59800005 4280493842
-0.0028476194 0.25799429 0.59800005 4279968274
-0.0017085716 0.25799429 0.59800005 4281867539
-0.00057999999 0.26274002 0.60900003 4283780648
0.00057999999 0.26274002 0.60900003 4286414909
0.0017400001 0.26274002 0.60900003 4289103182
0.0028952383 0.26230857 0.60800004 4289038943
0.0040533338 0.26230857 0.60800004 4289035107
0.0052114287 0.26230857 0.60800004 4288572775
0.0063695242 0.26230857 0.60800004 4288178266
0.0075400001 0.26274002 0.60900003 4287914829
0.0098923808 0.26360285 0.611 4287386939
0.01105619 0.26360285 0.611 4287057464
0.019982859 0.23210859 0.53800005 4284360226
0.021007622 0.23210859 0.53800005 4284030489
0.021991428 0.23167714 0.537 4283767587
0.023014287 0.23167714 0.537 4283373870
0.023992382 0.23124571 0.53600001 4283049262
0.025013333 0.23124571 0.53600001 4284822062
0.026034286 0.23124571 0.53600001 4286598212
0.027055239 0.23124571 0.53600001 4287981402
0.028023811 0.23081429 0.53500003 4289364568
0.028988572 0.23038287 0.53400004 4289699414
0.029949525 0.22995144 0.53300005 4290026347
0.031022858 0.23038287 0.53400004 4289960064
0.03204 0.23038287 0.53400004 4289958268
0.033057146 0.23038287 0.53400004 4289629049
0.034010477 0.22995144 0.53300005 4289366646
0.035091434 0.23038287 0.53400004 4289300852
0.036108572 0.23038287 0.53400004 4289234288
0.037125718 0.23038287 0.53400004 4289167724
0.03814286 0.23038287 0.53400004 4289101933
0.03908667 0.22995144 0.53300005 4288970862
0.040101908 0.22995144 0.53300005 4288906098
0.04104 0.22951999 0.53200001 4289234806
0.042132385 0.22995144 0.53300005 4289628534
0.043066666 0.22951999 0.53200001 4289760373
0.04408 0.22951999 0.53200001 4289956729
0.0502 0.21657716 0.50200003 4290481776
0.051156193 0.21657716 0.50200003 4290612599
0.052008577 0.21614572 0.50100005 4290678142
0.052962862 0.21614572 0.50100005 4290809206
0.053917147 0.21614572 0.50100005 4290874989
0.054871432 0.21614572 0.50100005 4290941040
0.055825718 0.21614572 0.50100005 4290810738
0.056780007 0.21614572 0.50100005 4290746231
0.057619046 0.21571429 0.5 4290747516
0.058571428 0.21571429 0.5 4290747263
0.059642863 0.21614572 0.50100005 4290812546
0.060597148 0.21614572 0.50100005 4290943872
0.065107614 0.21528287 0.49900001 4291666816
0.066058092 0.21528287 0.49900001 4291863427
0.06700857 0.21528287 0.49900001 4291928965
0.067959048 0.21528287 0.49900001 4291995017
0.068771437 0.21485144 0.49800003 4291798924
0.06972 0.21485144 0.49800003 4291667339
0.072274283 0.21398857 0.49600002 4291272840
0.073219053 0.21398857 0.49600002 4291010184
0.074014291 0.21355715 0.49500003 4291009929
0.075259998 0.21442001 0.49700001 4291012745
0.076206662 0.21442001 0.49700001 4291078026
0.077463813 0.21528287 0.49900001 4291208847
0.078257151 0.21485144 0.49800003 4291470741
0.079205722 0.21485144 0.49800003 4291732379
0.080154285 0.21485144 0.49800003 4291731872
0.081102863 0.21485144 0.49800003 4291803044
0.088335246 0.21398857 0.49600002 4293575323
0.089100003 0.21355715 0.49500003 4293575334
0.090042859 0.21355715 0.49500003 4293575598
0.09080191 0.21312572 0.49400002 4293575862
0.091742858 0.21312572 0.49400002 4293575848
0.092683807 0.21312572 0.49400002 4293641625
0.097033337 0.21442001 0.49700001 4288311862
0.097980008 0.21442001 0.49700001 4285752383
0.098727621 0.21398857 0.49600002 4284897096
0.099672385 0.21398857 0.49600002 4284111440
0.13468666 0.26878002 0.62300003 4284901726
0.13587333 0.26878002 0.62300003 4284967775
0.13618 0.26705429 0.61900002 4285098588
0.13735905 0.26705429 0.61900002 4285164122
0.13853811 0.26705429 0.61900002 4285229152
0.13926572 0.26619142 0.61700004 4285228390
0.14044096 0.26619142 0.61700004 4285227875
0.1416162 0.26619142 0.61700004 4285824864
0.14279144 0.26619142 0.61700004 4286480991
0.14396667 0.26619142 0.61700004 4284712286
0.14514191 0.26619142 0.61700004 4282994508
0.15479429 0.26662287 0.61800003 4279767820
0.15622382 0.26705429 0.61900002 4279175688
0.15714858 0.26662287 0.61800003 4278585861
0.1585819 0.26705429 0.61900002 4278454018
0.15976095 0.26705429 0.61900002 4278388993
0.16093999 0.26705429 0.61900002 4278388993
0.33173999 0.37663716 0.87300003 4278519812
0.33263907 0.37577429 0.87100005 4278388484
0.33353049 0.37491143 0.86900002 4278322947
0.3344143 0.37404856 0.86700004 4278388483
0.33606574 0.37404856 0.86700004 4278454786
0.33771718 0.37404856 0.86700004 4278584321
0.33858573 0.37318575 0.86500007 4278715650
0.34023336 0.37318575 0.86500007 4278584068
0.34069523 0.37189144 0.86200005 4278454532
0.34154284 0.37102857 0.86000001 4278585604
0.34238288 0.37016574 0.85800004 4278717188
0.34401715 0.37016574 0.85800004 4278584579
0.34565145 0.37016574 0.85800004 4278519051
0.3464762 0.3693029 0.85600007 4278453779
0.34729335 0.36844 0.85400003 4278454794
0.34810287 0.36757717 0.85200006 4278389250
0.34972575 0.36757717 0.85200006 4278389250
0.35052383 0.3667143 0.85000002 4278454785
0.35214284 0.3667143 0.85000002 4278522113
0.35292953 0.36585143 0.84800005 4279177473
0.3532905 0.36455715 0.84500003 4279832836
0.3549 0.36455715 0.84500003 4279308807
0.35566574 0.36369431 0.84300005 4278850573
0.35727143 0.36369431 0.84300005 4278651923
0.3580257 0.36283144 0.84100002 4278521612
0.3587724 0.36196858 0.83900005 4278653189
0.36037049 0.36196858 0.83900005 4278850056
0.36196858 0.36196858 0.83900005 4278784779
0.3635667 0.36196858 0.83900005 4278785290
0.36429429 0.36110571 0.83700001 4278916872
0.36501428 0.36024284 0.83500004 4279112967
0.36748284 0.36110571 0.83700001 4279308806
0.36819524 0.36024284 0.83500004 4279570182
0.36978573 0.36024284 0.83500004 4279111174
0.37048668 0.35938004 0.83300006 4278652426
0.37207335 0.35938004 0.83300006 4278586893
0.37366 0.35938004 0.83300006 4278586633
0.3752467 0.35938004 0.83300006 4278521092
0.37683335 0.35938004 0.83300006 4278520835
0.37751144 0.35851717 0.83100003 4278521090
0.3790943 0.35851717 0.83100003 4278521090
0.38067716 0.35851717 0.83100003 4278455811
0.38318002 0.35938004 0.83300006 4278389762
0.3847667 0.35938004 0.83300006 4278455041
0.38635334 0.35938004 0.83300006 4278521346
0.38700858 0.35851717 0.83100003 4278455812
0.38859144 0.35851717 0.83100003 4278455042
0.39299142 0.36110571 0.83700001 4278454273
0.3945857 0.36110571 0.83700001 4278519553
0.3971267 0.36196858 0.83900005 4278454017
0.39777428 0.36110571 0.83700001 4278388481
0.39936858 0.36110571 0.83700001 4278322945
0.38323808 0.34514284 0.80000001 4278323201
0.38380003 0.34428 0.79800004 4278387969
0.38483718 0.34384859 0.79700005 4278453249
0.38635528 0.34384859 0.79700005 4278387713
0.38398001 0.34039715 0.78900003 4278322945
0.3849943 0.33996573 0.78800005 4278323201
0.38551429 0.33910286 0.78600001 4278322436
0.38602668 0.33824 0.78400004 4278322183
0.38653144 0.33737716 0.78200006 4278322183
0.38702857 0.33651429 0.78000003 4278322438
0.38801619 0.33608288 0.77900004 4278322435
0.38850001 0.33522001 0.77700001 4278322689
0.38997999 0.33522001 0.77700001 4278322689
0.39045238 0.33435714 0.77500004 4278256897
0.39192858 0.33435714 0.77500004 4278256897
0.39340478 0.33435714 0.77500004 4278256641
0.39488098 0.33435714 0.77500004 4278322689
0.39533433 0.33349431 0.77300006 4278322945
0.39680669 0.33349431 0.77300006 4278322433
0.39776382 0.33306286 0.77200001 4278322177
0.39820001 0.33220002 0.77000004 4278387713
0.39862856 0.33133712 0.76800001 4278322177
0.40009144 0.33133712 0.76800001 4278256645
0.40155426 0.33133712 0.76800001 4278256649
0.40249237 0.33090574 0.76700002 4278256645
0.40395334 0.33090574 0.76700002 4278322178
0.40435714 0.33004287 0.76500005 4278387721
0.40581429 0.33004287 0.76500005 4278322192
0.40727147 0.33004287 0.76500005 4278256649
0.40766001 0.32918 0.76300001 4278256642
0.40911332 0.32918 0.76300001 4278322179
0.41056666 0.32918 0.76300001 4278322180
0.41094002 0.32831714 0.76100004 4278322178
0.41238955 0.32831714 0.76100004 4278387713
-0.29594195 0.23096669 0.53300005 4281678139
-0.29437333 0.23053333 0.53200001 4282202686
-0.29336002 0.23053333 0.53200001 4282399553
-0.29234666 0.23053333 0.53200001 4282661946
-0.29133332 0.23053333 0.53200001 4281083187
-0.28922859 0.22966668 0.53000003 4279507739
-0.28821903 0.22966668 0.53000003 4279439364
-0.29100287 0.23270001 0.537 4279373588
-0.28997999 0.23270001 0.537 4279902244
-0.28895715 0.23270001 0.537 4280496694
-0.2873981 0.23226666 0.53600001 4281085512
-0.28637716 0.23226666 0.53600001 4281739830
-0.28535619 0.23226666 0.53600001 4280953381
-0.28221333 0.23053333 0.53200001 4280166961
-0.28119999 0.23053333 0.53200001 4280626494
-0.28018668 0.23053333 0.53200001 4281151807
-0.2540476 0.23833333 0.55000001 4280493861
-0.25299999 0.23833333 0.55000001 4281614381
-0.25195241 0.23833333 0.55000001 4282729531
-0.25136092 0.23876667 0.551 4282793034
-0.25031143 0.23876667 0.551 4282856773
-0.2492619 0.23876667 0.551 4281937728
-0.24821237 0.23876667 0.551 4281084464
-0.24581717 0.23746668 0.54800004 4281150496
-0.24477336 0.23746668 0.54800004 4281282088
-0.24595334 0.23963335 0.55300003 4281216305
-0.24490002 0.23963335 0.55300003 4281216308
-0.24384667 0.23963335 0.55300003 4281216312
-0.24279335 0.23963335 0.55300003 4281282092
-0.19828573 0.25999999 0.60000002 4282862389
-0.19714287 0.25999999 0.60000002 4282599982
-0.19632667 0.26043335 0.60100001 4282401576
-0.19518191 0.26043335 0.60100001 4282271021
-0.19371429 0.25999999 0.60000002 4282204723
-0.19257143 0.25999999 0.60000002 4282138682
-0.19174762 0.26043335 0.60100001 4282138177
-0.19028571 0.25999999 0.60000002 4282203449
-0.18882763 0.25956666 0.59900004 4281874738
-0.18768668 0.25956666 0.59900004 4281546025
-0.18685715 0.25999999 0.60000002 4281152033
-0.18540478 0.25956666 0.59900004 4280692507
-0.18457143 0.25999999 0.60000002 4280493845
-0.18342857 0.25999999 0.60000002 4280295440
-0.18228573 0.25999999 0.60000002 4280098059
-0.18084095 0.25956666 0.59900004 4279900947
-0.17910001 0.25870001 0.597 4279701531
-0.17796287 0.25870001 0.597 4279505699
-0.17652953 0.25826666 0.59600002 4281549356
-0.17539428 0.25826666 0.59600002 4283649090
-0.17396668 0.25783333 0.59500003 4282993752
-0.17283334 0.25783333 0.59500003 4282272820
-0.17141144 0.25740001 0.59400004 4281275920
-0.17028001 0.25740001 0.59400004 4280361493
-0.17057239 0.25956666 0.59900004 4280625434
-0.16943145 0.25956666 0.59900004 4280954650
-0.15408286 0.25870001 0.597 4282137391
-0.15320192 0.25913337 0.59800005 4282005805
-0.15180857 0.25870001 0.597 4281808684
-0.15067142 0.25870001 0.597 4281610537
-0.14928381 0.25826666 0.59600002 4281479719
-0.14864573 0.25913337 0.59800005 4281348907
-0.14750668 0.25913337 0.59800005 4281611311
-0.14636764 0.25913337 0.59800005 4281939247
-0.14425716 0.25740001 0.59400004 4281873711
-0.14288476 0.25696671 0.59300005 4281808173
-0.14175525 0.25696671 0.59300005 4281611819
-0.14062573 0.25696671 0.59300005 4281414446
-0.13949619 0.25696671 0.59300005 4281151281
-0.13836668 0.25696671 0.59300005 4280888623
-0.13908857 0.26043335 0.60100001 4280494894
-0.1379438 0.26043335 0.60100001 4280100910
-0.13657144 0.25999999 0.60000002 4280559919
-0.13542858 0.25999999 0.60000002 4281084459
-0.13406192 0.25956666 0.59900004 4280559655
-0.13269906 0.25913337 0.59800005 4279969566
-0.13156001 0.25913337 0.59800005 4280297749
-0.13020286 0.25870001 0.597 4280626193
-0.12906571 0.25870001 0.597 4280494606
-0.12792857 0.25870001 0.597 4280297737
-0.12679142 0.25870001 0.597 4280428548
-0.12565428 0.25870001 0.597 4280493839
-0.12472572 0.25913337 0.59800005 4280821786
-0.12358667 0.25913337 0.59800005 4281215515
-0.12244762 0.25913337 0.59800005 4281083932
-0.12151143 0.25956666 0.59900004 4280951581
-0.12037048 0.25956666 0.59900004 4281150239
-0.11942858 0.25999999 0.60000002 4281347110
-0.11749715 0.25826666 0.59600002 4281216045
-0.1163619 0.25826666 0.59600002 4281150763
-0.11503334 0.25783333 0.59500003 4280625449
-0.11428285 0.25870001 0.597 4280165666
-0.11314572 0.25870001 0.597 4280362524
-0.11200857 0.25870001 0.597 4280559393
-0.11087143 0.25870001 0.597 4280624423
-0.1099181 0.25913337 0.59800005 4280757286
-0.10877906 0.25913337 0.59800005 4280889126
-0.10782 0.25956666 0.59900004 4281020965
-0.10667905 0.25956666 0.59900004 4281151525
-0.10571429 0.25999999 0.60000002 4281281817
-0.10457143 0.25999999 0.60000002 4281084941
-0.10308381 0.25913337 0.59800005 4280953109
-0.10194477 0.25913337 0.59800005 4281281821
-0.10080572 0.25913337 0.59800005 4281543953
-0.0995 0.25870001 0.597 4280625925
-0.098362856 0.25870001 0.597 4279708177
-0.097225711 0.25870001 0.597 4280363549
-0.096088566 0.25870001 0.597 4281084452
-0.095110483 0.25913337 0.59800005 4280953388
-0.094128579 0.25956666 0.59900004 4280822309
-0.092832386 0.25913337 0.59800005 4280691231
-0.092000008 0.25999999 0.60000002 4280494623
-0.091008566 0.26043335 0.60100001 4280757792
-0.089863814 0.26043335 0.60100001 4281019686
-0.088866673 0.2608667 0.60200006 4281216813
-0.087574288 0.26043335 0.60100001 4281479719
-0.086285718 0.25999999 0.60000002 4281348130
-0.085284762 0.26043335 0.60100001 4281216804
-0.084280007 0.2608667 0.60200006 4280954151
-0.08313334 0.2608667 0.60200006 4280757024
-0.081986673 0.2608667 0.60200006 4280756761
-0.080974288 0.26130003 0.60300004 4280822055
-0.07969334 0.2608667 0.60200006 4280953910
-0.078546673 0.2608667 0.60200006 4281085743
-0.077400006 0.2608667 0.60200006 4280757289
-0.076126665 0.26043335 0.60100001 4280494629
-0.074981906 0.26043335 0.60100001 4280690978
-0.073837139 0.26043335 0.60100001 4280952872
-0.072571434 0.25999999 0.60000002 4280887342
-0.071428567 0.25999999 0.60000002 4280822050
-0.07016857 0.25956666 0.59900004 4280363286
-0.069027625 0.25956666 0.59900004 4279840024
-0.068000004 0.25999999 0.60000002 4280430107
-0.066857144 0.25999999 0.60000002 4280954656
-0.066042863 0.26130003 0.60300004 4281020453
-0.065109529 0.26216665 0.60500002 4281152298
-0.063851431 0.26173332 0.60400003 4281479983
-0.062700957 0.26173332 0.60400003 4281807654
-0.061550479 0.26173332 0.60400003 4281413661
-0.060300004 0.26130003 0.60300004 4281085715
-0.059151433 0.26130003 0.60300004 4280954378
-0.058002859 0.26130003 0.60300004 4280822301
-0.056854293 0.26130003 0.60300004 4280757041
-0.055982858 0.2626 0.60600001 4280692007
-0.054828569 0.2626 0.60600001 4280625949
-0.053674288 0.2626 0.60600001 4280625701
-0.052606668 0.26303336 0.60700005 4280560173
-0.051365715 0.2626 0.60600001 4280560163
-0.050045718 0.26173332 0.60400003 4280494874
-0.048733339 0.2608667 0.60200006 4280430094
-0.047507618 0.26043335 0.60100001 4280560131
-0.046285715 0.25999999 0.60000002 4280691725
-0.045142859 0.25999999 0.60000002 4280953623
-0.044073332 0.26043335 0.60100001 4281281302
-0.042857144 0.25999999 0.60000002 4281020693
-0.041714288 0.25999999 0.60000002 4280757784
-0.040571429 0.25999999 0.60000002 4280560155
-0.039560005 0.2608667 0.60200006 4280427290
-0.038349524 0.26043335 0.60100001 4280361754
-0.037266672 0.2608667 0.60200006 4280362520
-0.036180001 0.26130003 0.60300004 4280625430
-0.03503143 0.26130003 0.60300004 4280822807
-0.03388286 0.26130003 0.60300004 4280888345
-0.032734286 0.26130003 0.60300004 4281019930
-0.031533338 0.2608667 0.60200006 4280757275
-0.030437144 0.26130003 0.60300004 4280560415
-0.029288573 0.26130003 0.60300004 4280427811
-0.028093336 0.2608667 0.60200006 4280297246
-0.026991429 0.26130003 0.60300004 4279970073
-0.025842858 0.26130003 0.60300004 4279708185
-0.024694288 0.26130003 0.60300004 4280101145
-0.023545716 0.26130003 0.60300004 4280559642
-0.022397144 0.26130003 0.60300004 4280823323
-0.021248572 0.26130003 0.60300004 4281019934
-0.020100001 0.26130003 0.60300004 4281020194
-0.018951431 0.26130003 0.60300004 4280954910
-0.017802857 0.26130003 0.60300004 4281085722
-0.016681906 0.26173332 0.60400003 4281215769
-0.015531429 0.26173332 0.60400003 4281084953
-0.014380952 0.26173332 0.60400003 4280954650
-0.013230477 0.26173332 0.60400003 4280692763
-0.012080001 0.26173332 0.60400003 4280431131
-0.010929525 0.26173332 0.60400003 4280692252
-0.0097790482 0.26173332 0.60400003 4281019943
-0.0086285714 0.26173332 0.60400003 4281216818
-0.0074285716 0.25999999 0.60000002 4281348132
-0.0062857145 0.25999999 0.60000002 4281019158
-0.0051428573 0.25999999 0.60000002 4280757272
-0.0039866669 0.25913337 0.59800005 4280428314
-0.0028476194 0.25913337 0.59800005 4280161552
-0.0017085716 0.25913337 0.59800005 4282727175
-0.00057047623 0.25956666 0.59900004 4285364799
0.00057047623 0.25956666 0.59900004 4286939256
0.0017142858 0.25999999 0.60000002 4288513893
0.0028857142 0.2626 0.60600001 4288182866
0.00404 0.2626 0.60600001 4287852115
0.0051942859 0.2626 0.60600001 4287588181
0.0063695242 0.26346669 0.60800004 4287324491
0.019982859 0.23313336 0.53800005 4281275669
0.020968571 0.23270001 0.537 4283046145
0.021991428 0.23270001 0.537 4284748052
0.022971429 0.23226666 0.53600001 4285544231
0.023992382 0.23226666 0.53600001 4286406205
0.025013333 0.23226666 0.53600001 4287528275
0.026034286 0.23226666 0.53600001 4288650602
0.027055239 0.23226666 0.53600001 4289177474
0.028023811 0.23183335 0.53500003 4289770118
0.028988572 0.23140001 0.53400004 4289697674
0.030005716 0.23140001 0.53400004 4289631362
0.031022858 0.23140001 0.53400004 4289563771
0.03204 0.23140001 0.53400004 4289496184
0.033057146 0.23140001 0.53400004 4289366389
0.034074288 0.23140001 0.53400004 4289300593
0.035091434 0.23140001 0.53400004 4289169261
0.036108572 0.23140001 0.53400004 4289038189
0.037125718 0.23140001 0.53400004 4288970606
0.03814286 0.23140001 0.53400004 4288904551
0.049243815 0.21753335 0.50200003 4289693792
0.050100002 0.21710001 0.50100005 4289759842
0.051054291 0.21710001 0.50100005 4289826161
0.052008577 0.21710001 0.50100005 4289891712
0.052857142 0.21666667 0.5 4289891953
0.053917147 0.21710001 0.50100005 4289957475
0.054871432 0.21710001 0.50100005 4290023012
0.055714287 0.21666667 0.5 4290089574
0.056666665 0.21666667 0.5 4290090861
0.057503812 0.21623334 0.49900001 4290156149
0.058454286 0.21623334 0.49900001 4290221687
0.059404761 0.21623334 0.49900001 4290287737
0.060234286 0.2158 0.49800003 4290353779
0.06118286 0.2158 0.49800003 4290417005
0.062131435 0.2158 0.49800003 4290546042
0.063079998 0.2158 0.49800003 4290614407
0.064028576 0.2158 0.49800003 4290683523
0.064977147 0.2158 0.49800003 4290945408
0.065925717 0.2158 0.49800003 4291141765
0.066874288 0.2158 0.49800003 4291338635
0.067822859 0.2158 0.49800003 4291542157
0.068771437 0.2158 0.49800003 4291469456
0.06944 0.21493334 0.49600002 4291404941
0.070384771 0.21493334 0.49600002 4291273610
0.071329527 0.21493334 0.49600002 4291076745
0.072274283 0.21493334 0.49600002 4290945160
0.073219053 0.21493334 0.49600002 4290879623
0.074014291 0.21450002 0.49500003 4290878599
0.074957147 0.21450002 0.49500003 4290882439
0.075900003 0.21450002 0.49500003 4290947207
0.076842859 0.21450002 0.49500003 4291077514
0.077785715 0.21450002 0.49500003 4291273869
0.079205722 0.2158 0.49800003 4291470232
0.087979056 0.21406667 0.49400002 4293508758
0.088739999 0.21363334 0.49300003 4293641131
0.089679055 0.21363334 0.49300003 4293775025
0.09080191 0.21406667 0.49400002 4293641143
0.091742858 0.21406667 0.49400002 4293509042
0.092871435 0.21450002 0.49500003 4293444525
0.093624763 0.21406667 0.49400002 4293447845
0.094565719 0.21406667 0.49400002 4292857246
0.095506668 0.21406667 0.49400002 4292266623
0.097033337 0.21536668 0.49700001 4290686560
0.097980008 0.21536668 0.49700001 4289172038
0.098727621 0.21493334 0.49600002 4287919661
0.099672385 0.21493334 0.49600002 4286732860
0.13618 0.26823336 0.61900002 4285033823
0.13735905 0.26823336 0.61900002 4285098850
0.13831429 0.2678 0.61800003 4285164131
0.13926572 0.26736668 0.61700004 4284967269
0.14044096 0.26736668 0.61700004 4284770401
0.1416162 0.26736668 0.61700004 4285363293
0.14279144 0.26736668 0.61700004 4286023275
0.14396667 0.26736668 0.61700004 4285434233
0.14514191 0.26736668 0.61700004 4284833619
0.15454382 0.26736668 0.61700004 4279639044
0.15571906 0.26736668 0.61700004 4278980104
0.15714858 0.2678 0.61800003 4278389509
0.1585819 0.26823336 0.61900002 4278454531
0.15976095 0.26823336 0.61900002 4278520066
0.16093999 0.26823336 0.61900002 4278454273
0.33098 0.37743336 0.87100005 4278453250
0.33187523 0.37656668 0.86900002 4278387969
0.33353049 0.37656668 0.86900002 4278389249
0.3344143 0.3757 0.86700004 4278389250
0.33529049 0.37483338 0.86500007 4278455041
0.33693811 0.37483338 0.86500007 4278519809
0.33741143 0.37353334 0.86200005 4278584834
0.33905333 0.37353334 0.86200005 4278454275
0.33911428 0.37180001 0.85800004 4278389508
0.34074858 0.37180001 0.85800004 4278716933
0.3415848 0.37093338 0.85600007 4279110147
0.34321526 0.37093338 0.85600007 4278913537
0.34484571 0.37093338 0.85600007 4278651653
0.3464762 0.37093338 0.85600007 4278520841
0.34729335 0.37006667 0.85400003 4278390277
0.34728575 0.36833334 0.85000002 4278389761
0.34890476 0.36833334 0.85000002 4278388993
0.34969905 0.36746669 0.84800005 4278389249
0.35131431 0.36746669 0.84800005 4278455809
0.35168096 0.36616668 0.84500003 4278783745
0.3524543 0.36530003 0.84300005 4279111939
0.35322002 0.36443332 0.84100002 4278915589
0.35482192 0.36443332 0.84100002 4278784785
0.3564238 0.36443332 0.84100002 4278652190
0.3580257 0.36443332 0.84100002 4278586642
0.3587724 0.3635667 0.83900005 4278652678
0.35951144 0.36269999 0.83700001 4278784007
0.36024284 0.36183333 0.83500004 4278784265
0.36269999 0.36269999 0.83700001 4278784517
0.36342382 0.36183333 0.83500004 4278850306
0.36501428 0.36183333 0.83500004 4278850563
0.36660478 0.36183333 0.83500004 4279047173
0.36731336 0.36096668 0.83300006 4279242244
0.36890003 0.36096668 0.83300006 4278980355
0.37048668 0.36096668 0.83300006 4278718466
0.37207335 0.36096668 0.83300006 4278587393
0.37276286 0.3601 0.83100003 4278521857
0.37434572 0.3601 0.83100003 4278455809
0.37592858 0.3601 0.83100003 4278455297
0.37660286 0.35923338 0.82900006 4278455297
0.37818193 0.35923338 0.82900006 4278521345
0.37976098 0.35923338 0.82900006 4278390529
0.38134 0.35923338 0.82900006 4278323201
0.38384286 0.3601 0.83100003 4278389249
0.38542572 0.3601 0.83100003 4278455809
0.38700858 0.3601 0.83100003 4278389761
0.3895267 0.36096668 0.83300006 4278389505
0.39111337 0.36096668 0.83300006 4278388225
0.39364287 0.36183333 0.83500004 4278387969
0.39523336 0.36183333 0.83500004 4278388481
0.39682382 0.36183333 0.83500004 4278388993
0.39841431 0.36183333 0.83500004 4278323201
0.38323808 0.34666666 0.80000001 4278257665
0.38380003 0.34580001 0.79800004 4278322689
0.38387144 0.34450001 0.79500002 4278322433
0.38441622 0.34363335 0.79300004 4278322689
0.38398001 0.34190002 0.78900003 4278322945
0.38401717 0.34060001 0.78600001 4278257409
0.38453335 0.33973336 0.78400004 4278257156
0.38602668 0.33973336 0.78400004 4278256904
0.38554287 0.33800003 0.78000003 4278322185
0.38702857 0.33800003 0.78000003 4278322443
0.38801619 0.33756667 0.77900004 4278322950
0.38850001 0.33669999 0.77700001 4278322945
0.38997999 0.33669999 0.77700001 4278257409
0.39045238 0.33583337 0.77500004 4278257153
0.39192858 0.33583337 0.77500004 4278257153
0.39340478 0.33583337 0.77500004 4278256641
0.39488098 0.33583337 0.77500004 4278323457
0.39533433 0.33496669 0.77300006 4278257665
0.39680669 0.33496669 0.77300006 4278257409
0.39827907 0.33496669 0.77300006 4278257409
0.39923429 0.33453333 0.77200001 4278322945
0.3996667 0.33366668 0.77000004 4278256897
0.40113336 0.33366668 0.77000004 4278256641
0.40260002 0.33366668 0.77000004 4278256642
0.40301713 0.3328 0.76800001 4278257153
0.40395334 0.33236668 0.76700002 4278321921
0.40541428 0.33236668 0.76700002 4278387713
0.40687525 0.33236668 0.76700002 4278322177
0.40727147 0.33149999 0.76500005 4278256641
0.4087286 0.33149999 0.76500005 4278256642
0.40911332 0.33063334 0.76300001 4278322180
0.41056666 0.33063334 0.76300001 4278321927
0.41202 0.33063334 0.76300001 4278321924
0.41347334 0.33063334 0.76300001 4278387713
-0.29538667 0.23154667 0.53200001 4281808700
-0.29437333 0.23154667 0.53200001 4282398530
-0.29280856 0.23111144 0.53100002 4283059784
-0.29179716 0.23111144 0.53100002 4283778876
-0.29078573 0.23111144 0.53100002 4281282865
-0.28922859 0.23067619 0.53000003 4278851368
-0.28821903 0.23067619 0.53000003 4278784031
-0.28720954 0.23067619 0.53000003 4278783784
-0.28620002 0.23067619 0.53000003 4279442993
-0.28788099 0.23285238 0.53500003 4280169024
-0.28686193 0.23285238 0.53500003 4280758095
-0.28584287 0.23285238 0.53500003 4281414206
-0.28322667 0.23154667 0.53200001 4281153069
-0.28221333 0.23154667 0.53200001 4280890930
-0.28119999 0.23154667 0.53200001 4281087542
-0.28018668 0.23154667 0.53200001 4281348151
-0.25474575 0.23807526 0.54700005 4278395941
-0.25416762 0.23851049 0.54800004 4279509796
-0.25312382 0.23851049 0.54800004 4280691500
-0.25208002 0.23851049 0.54800004 4281217843
-0.2510362 0.23851049 0.54800004 4281808702
-0.24999239 0.23851049 0.54800004 4281547593
-0.24985714 0.23938096 0.55000001 4281284931
-0.24880952 0.23938096 0.55000001 4281350205
-0.24731143 0.23894572 0.54900002 4281481013
-0.24581717 0.23851049 0.54800004 4281481005
-0.24477336 0.23851049 0.54800004 4281546035
-0.24372953 0.23851049 0.54800004 4281545785
-0.24268574 0.23851049 0.54800004 4281546306
-0.24340573 0.24025145 0.55200005 4281546827
-0.2423543 0.24025145 0.55200005 4281545783
-0.22951621 0.23676954 0.54400003 4281085507
-0.22848001 0.23676954 0.54400003 4281803078
-0.22786191 0.23720476 0.54500002 4280882506
-0.22682382 0.23720476 0.54500002 4279967034
-0.2262 0.23763999 0.546 4280690219
-0.22516 0.23763999 0.546 4281411631
-0.19828573 0.26114288 0.60000002 4282993973
-0.19714287 0.26114288 0.60000002 4282599221
-0.19632667 0.26157811 0.60100001 4282467638
-0.19518191 0.26157811 0.60100001 4282336566
-0.19371429 0.26114288 0.60000002 4282205494
-0.19257143 0.26114288 0.60000002 4282139195
-0.19174762 0.26157811 0.60100001 4282203968
-0.19028571 0.26114288 0.60000002 4282335289
-0.18882763 0.26070762 0.59900004 4282007858
-0.18768668 0.26070762 0.59900004 4281742891
-0.18685715 0.26114288 0.60000002 4281218853
-0.18540478 0.26070762 0.59900004 4280691743
-0.18457143 0.26114288 0.60000002 4280559385
-0.18312286 0.26070762 0.59900004 4280493331
-0.18198191 0.26070762 0.59900004 4280165388
-0.17993525 0.25940192 0.59600002 4279901463
-0.1785 0.25896668 0.59500003 4279702050
-0.17706858 0.25853142 0.59400004 4279569705
-0.17593715 0.25853142 0.59400004 4281548593
-0.17480572 0.25853142 0.59400004 4283584581
-0.1736743 0.25853142 0.59400004 4282865241
-0.17254287 0.25853142 0.59400004 4282207026
-0.17141144 0.25853142 0.59400004 4281013514
-0.17114 0.25983715 0.597 4279836689
-0.17000286 0.25983715 0.597 4280363287
-0.16886571 0.25983715 0.597 4280953370
-0.15408286 0.25983715 0.597 4282464561
-0.15294571 0.25983715 0.597 4281874227
-0.15180857 0.25983715 0.597 4281611828
-0.15016666 0.25896668 0.59500003 4281415220
-0.14903334 0.25896668 0.59500003 4281480757
-0.14765143 0.25853142 0.59400004 4281545779
-0.14627334 0.25809622 0.59300005 4281678386
-0.14514382 0.25809622 0.59300005 4281808691
-0.1440143 0.25809622 0.59300005 4281808948
-0.14264381 0.25766096 0.59200001 4281873969
-0.14151618 0.25766096 0.59200001 4281611821
-0.14062573 0.25809622 0.59300005 4281413680
-0.13949619 0.25809622 0.59300005 4281151028
-0.13836668 0.25809622 0.59300005 4280888371
-0.13723716 0.25809622 0.59300005 4280298034
-0.13633715 0.25853142 0.59400004 4279707953
-0.13566095 0.25940192 0.59600002 4280102961
-0.13475142 0.25983715 0.597 4280560426
-0.13361429 0.25983715 0.597 4280035620
-0.13225523 0.25940192 0.59600002 4279576606
-0.13112001 0.25940192 0.59600002 4280101912
-0.12998477 0.25940192 0.59600002 4280626198
-0.12884954 0.25940192 0.59600002 4280298772
-0.1275 0.25896668 0.59500003 4279970323
-0.12636667 0.25896668 0.59500003 4280035602
-0.12544382 0.25940192 0.59600002 4280166167
-0.12430857 0.25940192 0.59600002 4280428316
-0.12338 0.25983715 0.597 4280755992
-0.12224285 0.25983715 0.597 4280887060
-0.12110572 0.25983715 0.597 4281018650
-0.11996857 0.25983715 0.597 4281215776
-0.11883143 0.25983715 0.597 4281478181
-0.11749715 0.25940192 0.59600002 4281282090
-0.11616667 0.25896668 0.59500003 4281150759
-0.11484001 0.25853142 0.59400004 4280560164
-0.11390001 0.25896668 0.59500003 4279970336
-0.11276667 0.25896668 0.59500003 4280298268
-0.11182095 0.25940192 0.59600002 4280690719
-0.11050001 0.25896668 0.59500003 4280756003
-0.10955048 0.25940192 0.59600002 4280822569
-0.10841525 0.25940192 0.59600002 4280955184
-0.10764001 0.26027238 0.59800005 4281151787
-0.10650096 0.26027238 0.59800005 4281151783
-0.10536192 0.26027238 0.59800005 4281151006
-0.10422286 0.26027238 0.59800005 4281085206
-0.10273904 0.25940192 0.59600002 4281085208
-0.10126286 0.25853142 0.59400004 4280954139
-0.099794291 0.25766096 0.59200001 4280823061
-0.099000007 0.25853142 0.59400004 4280492559
-0.098033339 0.25896668 0.59500003 4280167192
-0.096900001 0.25896668 0.59500003 4280429602
-0.095766671 0.25896668 0.59500003 4280757294
-0.094633341 0.25896668 0.59500003 4280823099
-0.093814284 0.25983715 0.597 4280888360
-0.092677139 0.25983715 0.597 4280887060
-0.091539994 0.25983715 0.597 4280888092
-0.090402856 0.25983715 0.597 4281020196
-0.089265719 0.25983715 0.597 4281216297
-0.088128574 0.25983715 0.597 4281479469
-0.08742857 0.26114288 0.60000002 4281807143
-0.085998096 0.26027238 0.59800005 4281479713
-0.084859051 0.26027238 0.59800005 4281151263
-0.083720006 0.26027238 0.59800005 4280823837
-0.082304768 0.25940192 0.59600002 4280560150
-0.081169531 0.25940192 0.59600002 4280625424
-0.079765722 0.25853142 0.59400004 4280756766
-0.078766666 0.25896668 0.59500003 4280692524
-0.078285716 0.26114288 0.60000002 4280692520
-0.077142857 0.26114288 0.60000002 4280364581
-0.076000005 0.26114288 0.60000002 4280036899
-0.074857146 0.26114288 0.60000002 4280495906
-0.073714286 0.26114288 0.60000002 4280954403
-0.072571434 0.26114288 0.60000002 4280954148
-0.071309529 0.26070762 0.59900004 4280953625
-0.07016857 0.26070762 0.59900004 4280101390
-0.069027625 0.26070762 0.59900004 4279315732
-0.067886673 0.26070762 0.59900004 4280169241
-0.066745721 0.26070762 0.59900004 4281086495
-0.065495245 0.26027238 0.59800005 4281086501
-0.064356193 0.26027238 0.59800005 4281152045
-0.063851431 0.26288381 0.60400003 4281676854
-0.062597148 0.26244858 0.60300004 4282200619
-0.061550479 0.26288381 0.60400003 4281609761
-0.060300004 0.26244858 0.60300004 4281085467
-0.058955237 0.26157811 0.60100001 4280626709
-0.057810474 0.26157811 0.60100001 4280167710
-0.056382861 0.26027238 0.59800005 4280364072
-0.055243813 0.26027238 0.59800005 4280560672
-0.05374286 0.25853142 0.59400004 4280691737
-0.052700002 0.25896668 0.59500003 4280822554
-0.051653333 0.25940192 0.59600002 4280756508
-0.050941907 0.26157811 0.60100001 4280757020
-0.049797144 0.26157811 0.60100001 4280626204
-0.048652381 0.26157811 0.60100001 4280495125
-0.047428574 0.26114288 0.60000002 4280560398
-0.046208575 0.26070762 0.59900004 4280691478
-0.04506762 0.26070762 0.59900004 4280888351
-0.044 0.26114288 0.60000002 4281085219
-0.042785715 0.26070762 0.59900004 4281020710
-0.041644763 0.26070762 0.59900004 4280953890
-0.040503811 0.26070762 0.59900004 4280690975
-0.039428573 0.26114288 0.60000002 4280427804
-0.038285714 0.26114288 0.60000002 4280362010
-0.037204765 0.26157811 0.60100001 4280362781
-0.036059998 0.26157811 0.60100001 4280560672
-0.034915239 0.26157811 0.60100001 4280822813
-0.033770476 0.26157811 0.60100001 4280823066
-0.032625712 0.26157811 0.60100001 4280888609
-0.031480953 0.26157811 0.60100001 4280758056
-0.03033619 0.26157811 0.60100001 4280691491
-0.029240003 0.26201335 0.60200006 4280428062
-0.028046668 0.26157811 0.60100001 4280166171
-0.026946669 0.26201335 0.60200006 4279708183
-0.025800001 0.26201335 0.60200006 4279249174
-0.024694288 0.26244858 0.60300004 4279969813
-0.023506669 0.26201335 0.60200006 4280757023
-0.022360003 0.26201335 0.60200006 4280954665
-0.021213336 0.26201335 0.60200006 4281216807
-0.020066667 0.26201335 0.60200006 4281020197
-0.018920001 0.26201335 0.60200006 4280889123
-0.017802857 0.26244858 0.60300004 4280889376
-0.016654287 0.26244858 0.60300004 4280889123
-0.015505716 0.26244858 0.60300004 4280888870
-0.014357143 0.26244858 0.60300004 4280888866
-0.013186668 0.26201335 0.60200006 4280496670
-0.012040001 0.26201335 0.60200006 4280168478
-0.010911429 0.26244858 0.60300004 4280495901
-0.0097628571 0.26244858 0.60300004 4280888867
-0.0085857147 0.26157811 0.60100001 4281019946
-0.0074285716 0.26114288 0.60000002 4281216544
-0.0062857145 0.26114288 0.60000002 4280822807
-0.0051428573 0.26114288 0.60000002 4280429075
-0.0039933338 0.26070762 0.59900004 4280362766
-0.002852381 0.26070762 0.59900004 4280360206
-0.0017085716 0.26027238 0.59800005 4283652366
-0.00057047623 0.26070762 0.59900004 4286997805
0.00057047623 0.26070762 0.59900004 4287459660
0.0017142858 0.26114288 0.60000002 4287914304
0.0028571428 0.26114288 0.60000002 4287320372
0.0040000002 0.26114288 0.60000002 4286730033
0.0051942859 0.26375431 0.60600001 4286598447
0.01888762 0.23328763 0.53600001 4280550677
0.019908572 0.23328763 0.53600001 4278264098
0.020968571 0.23372285 0.537 4281999920
0.021991428 0.23372285 0.537 4285813059
0.022971429 0.23328763 0.53600001 4287791190
0.023992382 0.23328763 0.53600001 4289761883
0.025013333 0.23328763 0.53600001 4290225247
0.026034286 0.23328763 0.53600001 4290680941
0.027004763 0.23285238 0.53500003 4290418811
0.028023811 0.23285238 0.53500003 4290221178
0.028988572 0.23241717 0.53400004 4289761657
0.029949525 0.23198192 0.53300005 4289302392
0.030964766 0.23198192 0.53300005 4289169015
0.03198 0.23198192 0.53300005 4289103730
0.032995243 0.23198192 0.53300005 4289169517
0.034010477 0.23198192 0.53300005 4289234794
0.046375241 0.21848954 0.50200003 4288969838
0.04733143 0.21848954 0.50200003 4289035625
0.048287623 0.21848954 0.50200003 4288970341
0.049145717 0.21805429 0.50100005 4288971619
0.050100002 0.21805429 0.50100005 4289037154
0.051054291 0.21805429 0.50100005 4289102695
0.052008577 0.21805429 0.50100005 4289037420
0.052962862 0.21805429 0.50100005 4289036650
0.053917147 0.21805429 0.50100005 4289101672
0.054761905 0.21761905 0.5 4289166698
0.055714287 0.21761905 0.5 4289297515
0.056666665 0.21761905 0.5 4289495403
0.057388574 0.21674858 0.49800003 4289562219
0.058337145 0.21674858 0.49800003 4289693294
0.059285719 0.21674858 0.49800003 4289693298
0.060234286 0.21674858 0.49800003 4289758574
0.06118286 0.21674858 0.49800003 4289758571
0.062131435 0.21674858 0.49800003 4289759345
0.063079998 0.21674858 0.49800003 4289826423
0.063900001 0.21631333 0.49700001 4289956991
0.064846672 0.21631333 0.49700001 4290218631
0.065793335 0.21631333 0.49700001 4290486153
0.066740006 0.21631333 0.49700001 4290814091
0.06755048 0.2158781 0.49600002 4291141006
0.068495244 0.2158781 0.49600002 4291140241
0.06944 0.2158781 0.49600002 4291205773
0.070384771 0.2158781 0.49600002 4290878344
0.071329527 0.2158781 0.49600002 4290617479
0.072128579 0.21544287 0.49500003 4290683014
0.073071435 0.21544287 0.49500003 4290748296
0.073864765 0.21500763 0.49400002 4290747529
0.074957147 0.21544287 0.49500003 4290813066
0.075900003 0.21544287 0.49500003 4290878602
0.076842859 0.21544287 0.49500003 4290943885
0.077785715 0.21544287 0.49500003 4291074959
0.087622859 0.21413715 0.49200001 4293443738
0.08856 0.21413715 0.49200001 4293706917
0.089497142 0.21413715 0.49200001 4293968812
0.090618096 0.21457238 0.49300003 4293706419
0.091557153 0.21457238 0.49300003 4293444273
0.092683807 0.21500763 0.49400002 4293313199
0.09343525 0.21457238 0.49300003 4293183143
0.094374284 0.21457238 0.49300003 4293381023
0.09531334 0.21457238 0.49300003 4293576848
0.096252382 0.21457238 0.49300003 4293116801
0.097191438 0.21457238 0.49300003 4292652910
0.098130479 0.21457238 0.49300003 4291009371
0.13831429 0.26897717 0.61800003 4285099104
0.13926572 0.26854193 0.61700004 4284705887
0.14044096 0.26854193 0.61700004 4284377950
0.15312001 0.2681067 0.61600006 4280034825
0.15429334 0.2681067 0.61600006 4279507977
0.15571906 0.26854193 0.61700004 4278850313
0.15714858 0.26897717 0.61800003 4278259463
0.1585819 0.26941237 0.61900002 4278454533
0.15976095 0.26941237 0.61900002 4278650885
0.32856476 0.3782219 0.86900002 4278388483
0.33022001 0.3782219 0.86900002 4278387970
0.33111146 0.37735146 0.86700004 4278387713
0.3327629 0.37735146 0.86700004 4278455298
0.3344143 0.37735146 0.86700004 4278455298
0.33529049 0.37648097 0.86500007 4278520579
0.33576953 0.37517527 0.86200005 4278520324
0.33741143 0.37517527 0.86200005 4278520837
0.33748001 0.37343431 0.85800004 4278390278
0.33911428 0.37343431 0.85800004 4278325001
0.34074858 0.37343431 0.85800004 4278915340
0.3415848 0.37256381 0.85600007 4279570187
0.34241337 0.37169334 0.85400003 4279176714
0.34484571 0.37256381 0.85600007 4278849556
0.34566668 0.37169334 0.85400003 4278587935
0.34648001 0.37082288 0.85200006 4278390802
0.34728575 0.36995238 0.85000002 4278390277
0.34808382 0.36908191 0.84800005 4278455299
0.34969905 0.36908191 0.84800005 4278389505
0.35131431 0.36908191 0.84800005 4278389761
0.35168096 0.36777619 0.84500003 4278390274
0.35161811 0.36603525 0.84100002 4278391043
0.35322002 0.36603525 0.84100002 4278588676
0.35482192 0.36603525 0.84100002 4278785034
0.35557619 0.36516479 0.83900005 4278717969
0.35717431 0.36516479 0.83900005 4278652427
0.35706192 0.36342382 0.83500004 4278717957
0.35865241 0.36342382 0.83500004 4278784013
0.36024284 0.36342382 0.83500004 4278784022
0.36183333 0.36342382 0.83500004 4278849804
0.36255336 0.36255336 0.83300006 4278719235
0.36414 0.36255336 0.83300006 4278653699
0.36572668 0.36255336 0.83300006 4278785540
0.36731336 0.36255336 0.83300006 4278980101
0.36890003 0.36255336 0.83300006 4278849543
0.36959717 0.36168289 0.83100003 4278783757
0.37118 0.36168289 0.83100003 4278587156
0.37276286 0.36168289 0.83100003 4278456075
0.37434572 0.36168289 0.83100003 4278391298
0.37592858 0.36168289 0.83100003 4278389761
0.37660286 0.3608124 0.82900006 4278455041
0.37818193 0.3608124 0.82900006 4278520833
0.37884477 0.3599419 0.82700002 4278390785
0.38042 0.3599419 0.82700002 4278257409
0.38291907 0.3608124 0.82900006 4278323713
0.38449812 0.3608124 0.82900006 4278389251
0.38607717 0.3608124 0.82900006 4278389509
0.38765621 0.3608124 0.82900006 4278389507
0.3901743 0.36168289 0.83100003 4278322433
0.39270002 0.36255336 0.83300006 4278322689
0.39428669 0.36255336 0.83300006 4278323201
0.39587334 0.36255336 0.83300006 4278388994
0.39746004 0.36255336 0.83300006 4278323716
0.38323808 0.34819049 0.80000001 4278258178
0.38380003 0.34731999 0.79800004 4278258177
0.38387144 0.34601429 0.79500002 4278258177
0.38441622 0.34514382 0.79300004 4278258177
0.38349336 0.34296763 0.78800005 4278323201
0.38401717 0.34209713 0.78600001 4278257921
0.38551429 0.34209713 0.78600001 4278257155
0.38602668 0.3412267 0.78400004 4278257413
0.38653144 0.3403562 0.78200006 4278322182
0.38702857 0.33948573 0.78000003 4278322695
0.38801619 0.3390505 0.77900004 4278387972
0.38950002 0.3390505 0.77900004 4278322433
0.38997999 0.33818001 0.77700001 4278256897
0.39045238 0.33730954 0.77500004 4278257153
0.39192858 0.33730954 0.77500004 4278322689
0.39340478 0.33730954 0.77500004 4278322177
0.39488098 0.33730954 0.77500004 4278322945
0.39635715 0.33730954 0.77500004 4278258177
0.39783335 0.33730954 0.77500004 4278257921
0.39827907 0.33643907 0.77300006 4278257922
0.39975145 0.33643907 0.77300006 4278257921
0.40070477 0.33600381 0.77200001 4278257921
0.40217522 0.33600381 0.77200001 4278256641
0.40260002 0.33513334 0.77000004 4278256641
0.40406668 0.33513334 0.77000004 4278321922
0.40553334 0.33513334 0.77000004 4278387458
0.40700004 0.33513334 0.77000004 4278452994
0.4074057 0.33426288 0.76800001 4278321922
0.40833619 0.33382761 0.76700002 4278256388
0.40979716 0.33382761 0.76700002 4278322183
0.41018575 0.33295715 0.76500005 4278387461
0.41164288 0.33295715 0.76500005 4278387460
0.41310003 0.33295715 0.76500005 4278387458
0.41455716 0.33295715 0.76500005 4278387713
-0.29538667 0.23255999 0.53200001 4281479486
-0.29437333 0.23255999 0.53200001 4281939270
-0.29280856 0.23212285 0.53100002 4282403919
-0.29124764 0.23168573 0.53000003 4282798911
-0.29023811 0.23168573 0.53000003 4281281584
-0.28922859 0.23168573 0.53000003 4279768117
