# .PCD v0.7 - Point Cloud Data file format
VERSION 0.7
FIELDS x y z rgba
SIZE 4 4 4 4
TYPE F F F U
COUNT 1 1 1 1
WIDTH 1130
HEIGHT 1
VIEWPOINT 0 0 0 1 0 0 0
POINTS 1130
DATA ascii
-0.003894286 0.44784287 1.363 4294242013
-0.0012980952 0.44784287 1.363 4294176474
0.0012980952 0.44784287 1.363 4294110936
0.0038800002 0.44620001 1.358 4294044888
0.0064666667 0.44620001 1.358 4293976792
0.0090533337 0.44620001 1.358 4293977559
0.01164 0.44620001 1.358 4293978582
0.014226668 0.44620001 1.358 4294043605
0.016813334 0.44620001 1.358 4293912533
0.019400001 0.44620001 1.358 4293846743
0.021986667 0.44620001 1.358 4293584346
0.024573334 0.44620001 1.358 4293387731
0.02726 0.44784287 1.363 4293385676
0.029856192 0.44784287 1.363 4293385422
0.032452382 0.44784287 1.363 4293450960
0.035048574 0.44784287 1.363 4293584592
0.037644763 0.44784287 1.363 4293649873
0.040093333 0.44620001 1.358 4293715410
0.042837143 0.44784287 1.363 4293715411
0.045433335 0.44784287 1.363 4293780177
0.048029523 0.44784287 1.363 4293779663
0.050440002 0.44620001 1.358 4293781461
0.053221907 0.44784287 1.363 4293977819
0.055613335 0.44620001 1.358 4294177242
0.058414288 0.44784287 1.363 4294308314
0.060786664 0.44620001 1.358 4294504418
0.063373335 0.44620001 1.358 4294569451
0.065960005 0.44620001 1.358 4294703854
0.068546668 0.44620001 1.358 4294769905
0.071133338 0.44620001 1.358 4294901494
0.073720008 0.44620001 1.358 4294901499
0.076306671 0.44620001 1.358 4294901500
0.078893334 0.44620001 1.358 4294901502
0.081780002 0.44784287 1.363 4294901502
0.084376194 0.44784287 1.363 4294901502
0.086972378 0.44784287 1.363 4294901502
0.089568578 0.44784287 1.363 4294901502
0.092164762 0.44784287 1.363 4294901502
0.094760954 0.44784287 1.363 4294901502
0.097357146 0.44784287 1.363 4294901502
0.099586666 0.44620001 1.358 4294901502
0.10217334 0.44620001 1.358 4294901502
0.10476 0.44620001 1.358 4294901502
0.10734667 0.44620001 1.358 4294901502
0.1103381 0.44784287 1.363 4294901502
0.11293428 0.44784287 1.363 4294901502
0.11510667 0.44620001 1.358 4294901502
0.11769333 0.44620001 1.358 4294901502
0.12028001 0.44620001 1.358 4294901502
0.12331904 0.44784287 1.363 4294901502
0.12545332 0.44620001 1.358 4294901502
0.12804 0.44620001 1.358 4294901502
0.13062666 0.44620001 1.358 4294901502
0.13321334 0.44620001 1.358 4294901502
0.1358 0.44620001 1.358 4294901502
0.1388962 0.44784287 1.363 4294901502
0.14149238 0.44784287 1.363 4294901502
0.14356001 0.44620001 1.358 4294901502
0.14614667 0.44620001 1.358 4294901502
0.14873333 0.44620001 1.358 4294901502
0.15132 0.44620001 1.358 4294901502
0.15390667 0.44620001 1.358 4294901502
0.15649334 0.44620001 1.358 4294901502
0.15908001 0.44620001 1.358 4294901502
0.16166666 0.44620001 1.358 4294901502
0.16425334 0.44620001 1.358 4294901502
0.16745429 0.44784287 1.363 4294901502
0.17005049 0.44784287 1.363 4294901502
0.17264667 0.44784287 1.363 4294901502
0.17524286 0.44784287 1.363 4294901502
0.17783906 0.44784287 1.363 4294901502
0.17977335 0.44620001 1.358 4294901502
0.18236001 0.44620001 1.358 4294901502
0.18494667 0.44620001 1.358 4294901502
0.18753333 0.44620001 1.358 4294901502
0.18928002 0.44422859 1.3520001 4294901502
0.19185525 0.44422859 1.3520001 4294901502
0.1944305 0.44422859 1.3520001 4294901502
0.19788 0.44620001 1.358 4294901502
0.20120476 0.44784287 1.363 4294901502
0.20380096 0.44784287 1.363 4294901502
0.20639715 0.44784287 1.363 4294901502
0.20899335 0.44784287 1.363 4294901502
0.21158953 0.44784287 1.363 4294901502
0.21418571 0.44784287 1.363 4294901502
0.2167819 0.44784287 1.363 4294901502
0.2193781 0.44784287 1.363 4294901502
0.22115999 0.44620001 1.358 4294901502
0.22275811 0.44422859 1.3520001 4294901502
0.22533335 0.44422859 1.3520001 4294901499
0.22706573 0.44258574 1.3470001 4294901496
0.22963145 0.44258574 1.3470001 4294890942
0.24771143 0.47215715 1.437 4292908677
0.25149429 0.47412857 1.4430001 4290941306
0.25424287 0.47412857 1.4430001 4290874736
0.25699142 0.47412857 1.4430001 4290877048
0.25974002 0.47412857 1.4430001 4291074176
0.26248857 0.47412857 1.4430001 4291271034
0.26523715 0.47412857 1.4430001 4291009396
0.26798573 0.47412857 1.4430001 4290742403
0.27073431 0.47412857 1.4430001 4290077330
0.27348286 0.47412857 1.4430001 4289512391
0.27623147 0.47412857 1.4430001 4292214523
0.27898002 0.47412857 1.4430001 4294901500
0.28172857 0.47412857 1.4430001 4294901502
0.28566003 0.47610003 1.4490001 4294901502
0.28842002 0.47610003 1.4490001 4294901502
0.29118001 0.47610003 1.4490001 4294901502
0.29394001 0.47610003 1.4490001 4294901502
0.29670003 0.47610003 1.4490001 4294901502
0.29946002 0.47610003 1.4490001 4294901502
0.30222002 0.47610003 1.4490001 4294901502
0.30498004 0.47610003 1.4490001 4294901502
0.30774 0.47610003 1.4490001 4294901502
0.31050003 0.47610003 1.4490001 4294901502
0.31455714 0.47807142 1.455 4294901485
0.31602001 0.47610003 1.4490001 4294035932
0.32010001 0.47807142 1.455 4293193965
0.32287145 0.47807142 1.455 4294049534
0.32564288 0.47807142 1.455 4294901500
0.32841429 0.47807142 1.455 4294901498
0.33255145 0.4800429 1.4610001 4294898149
0.3353343 0.4800429 1.4610001 4293451217
0.33672857 0.47807142 1.455 4292072924
0.3409 0.4800429 1.4610001 4292529639
0.34368289 0.4800429 1.4610001 4293062124
0.34788859 0.48201433 1.4670001 4293851889
0.35068288 0.48201433 1.4670001 4294701798
0.35347718 0.48201433 1.4670001 4293059291
0.35627145 0.48201433 1.4670001 4291412422
0.35906574 0.48201433 1.4670001 4290947250
0.36186004 0.48201433 1.4670001 4290559679
0.3646543 0.48201433 1.4670001 4291019981
0.3674486 0.48201433 1.4670001 4291549391
0.37024289 0.48201433 1.4670001 4291811793
0.37303716 0.48201433 1.4670001 4292072661
0.37736857 0.48398572 1.473 4292071642
0.38017431 0.48398572 1.473 4292073955
0.38298002 0.48398572 1.473 4293190381
0.38578573 0.48398572 1.473 4294309621
0.39360383 0.49022862 1.4920001 4294573822
0.39644575 0.49022862 1.4920001 4294901502
0.39928764 0.49022862 1.4920001 4294901502
0.4040162 0.49252859 1.4990001 4294901502
0.40687144 0.49252859 1.4990001 4294901502
0.49801433 0.48398572 1.473 4283980374
-0.37749621 0.21580097 0.65300006 4287531154
-0.37625241 0.21580097 0.65300006 4287661967
-0.37615716 0.21646191 0.65500003 4287596685
-0.37834382 0.21844476 0.66100001 4287466121
-0.3793667 0.21976666 0.66500002 4287531397
-0.37866858 0.22009714 0.66600001 4287530888
-0.37740001 0.22009714 0.66600001 4287465868
-0.37669623 0.22042763 0.66700006 4287401875
-0.37542573 0.22042763 0.66700006 4287203995
-0.3758381 0.22141905 0.67000002 4287072919
-0.37679809 0.22274096 0.67400002 4286875795
-0.37607142 0.22307143 0.67500001 4286612102
-0.37534097 0.22340192 0.67600006 4286347130
-0.37405336 0.22340192 0.67600006 4286083703
-0.37386858 0.22406286 0.67800003 4285886581
-0.37257716 0.22406286 0.67800003 4285755248
-0.37183335 0.22439334 0.67900002 4285820779
-0.37217715 0.22538477 0.68200004 4285886324
-0.37196571 0.22604571 0.68400002 4285624190
-0.37391433 0.2280286 0.69000006 4285427821
-0.37800002 0.23133335 0.70000005 4284573277
-0.37666669 0.23133335 0.70000005 4283718987
-0.37586954 0.23166382 0.70100003 4281671738
-0.37560284 0.23232476 0.70300001 4279706679
-0.37479621 0.23265526 0.70400006 4280099892
-0.37345526 0.23265526 0.70400006 4280560953
-0.3721143 0.23265526 0.70400006 4280887615
-0.37077338 0.23265526 0.70400006 4281214778
-0.45444858 0.38368285 1.161 4279111468
-0.45067906 0.38236099 1.1570001 4278849580
-0.45002571 0.38368285 1.161 4278980652
-0.44627145 0.38236099 1.1570001 4279045673
-0.44406763 0.38236099 1.1570001 4279176743
-0.44186383 0.38236099 1.1570001 4279307811
-0.43966004 0.38236099 1.1570001 4279242271
-0.43745622 0.38236099 1.1570001 4279176734
-0.43826193 0.38500479 1.1650001 4279045149
-0.44053429 0.38897046 1.177 4278979348
-0.43829241 0.38897046 1.177 4278914827
-0.4360505 0.38897046 1.177 4278914579
-0.43380859 0.38897046 1.177 4278783259
-0.43156669 0.38897046 1.177 4278719515
-0.42932478 0.38897046 1.177 4278783771
-0.42708287 0.38897046 1.177 4278914590
-0.42484096 0.38897046 1.177 4278980386
-0.4211629 0.38764861 1.1730001 4279110690
-0.41892859 0.38764861 1.1730001 4279176739
-0.41669431 0.38764861 1.1730001 4279308069
-0.41446003 0.38764861 1.1730001 4279373607
-0.41082001 0.38632667 1.169 4279439148
-0.40999144 0.38764861 1.1730001 4279898930
-0.40775719 0.38764861 1.1730001 4280359475
-0.40552288 0.38764861 1.1730001 4280820021
-0.4032886 0.38764861 1.1730001 4281281083
-0.3944867 0.41606954 1.2590001 4280295977
-0.3933343 0.41739145 1.263 4280165432
-0.39092857 0.41739145 1.263 4280100406
-0.38852286 0.41739145 1.263 4280034357
-0.38611713 0.41739145 1.263 4279968308
-0.38433719 0.43160194 1.3060001 4280884812
-0.38184956 0.43160194 1.3060001 4281345106
-0.37936196 0.43160194 1.3060001 4281805384
-0.37687433 0.43160194 1.3060001 4282864958
-0.3743867 0.43160194 1.3060001 4283983440
-0.37047526 0.42994958 1.3010001 4284246626
-0.36120859 0.42201811 1.2770001 4284575332
-0.35877621 0.42201811 1.2770001 4285429350
-0.35634381 0.42201811 1.2770001 4286285184
-0.35252571 0.42036575 1.2720001 4286815386
-0.35010287 0.42036575 1.2720001 4287407001
-0.34768003 0.42036575 1.2720001 4287140760
-0.3466143 0.42201811 1.2770001 4286876290
-0.34418193 0.42201811 1.2770001 4287530092
-0.34174952 0.42201811 1.2770001 4288126355
-0.33931717 0.42201811 1.2770001 4289114555
-0.33820382 0.4236705 1.2820001 4290164409
-0.3357619 0.4236705 1.2820001 4289769911
-0.33332002 0.4236705 1.2820001 4289441976
-0.33087811 0.4236705 1.2820001 4289705914
-0.32971713 0.42532286 1.2870001 4290035386
-0.32828283 0.42664474 1.291 4288453050
-0.32582378 0.42664474 1.291 4286872735
-0.32461712 0.42829713 1.296 4286479748
-0.32463431 0.43160194 1.3060001 4286154110
-0.32461336 0.43490669 1.3160001 4287073144
-0.32333052 0.43655905 1.3210001 4288058018
-0.32081428 0.43655905 1.3210001 4288790477
-0.3182981 0.43655905 1.3210001 4289505702
-0.31697714 0.43821147 1.3260001 4287790976
-0.31445143 0.43821147 1.3260001 4286150789
-0.31310192 0.43986383 1.3310001 4286349450
-0.17298 0.27660856 0.83700001 4281872697
-0.17097619 0.27594763 0.83500004 4281741623
-0.16979143 0.27660856 0.83700001 4281677880
-0.16859905 0.27726954 0.83900005 4282070329
-0.16739905 0.27793047 0.84100002 4282466110
-0.16579714 0.27793047 0.84100002 4282860867
-0.16419524 0.27793047 0.84100002 4283322442
-0.16220668 0.27726954 0.83900005 4284110930
-0.16099143 0.27793047 0.84100002 4284963672
-0.15938953 0.27793047 0.84100002 4285031775
-0.15778762 0.27793047 0.84100002 4285032546
-0.069354288 0.45407429 1.3740001 4284173367
-0.066445716 0.45209143 1.368 4282864206
-0.063839994 0.45209143 1.368 4281611303
-0.06101048 0.45043904 1.363 4282864129
-0.058414288 0.45043904 1.363 4284182648
-0.055818096 0.45043904 1.363 4288922608
-0.053026669 0.44878668 1.358 4293655791
-0.050440002 0.44878668 1.358 4294178799
-0.047853336 0.44878668 1.358 4294702056
-0.045266669 0.44878668 1.358 4294636513
-0.042680003 0.44878668 1.358 4294572516
-0.039916191 0.44680384 1.3520001 4294438119
-0.037340954 0.44680384 1.3520001 4294307811
-0.034765717 0.44680384 1.3520001 4294373087
-0.032190479 0.44680384 1.3520001 4294372833
-0.02961524 0.44680384 1.3520001 4294373603
-0.027040001 0.44680384 1.3520001 4294440164
-0.024464764 0.44680384 1.3520001 4294439141
-0.021986667 0.44878668 1.358 4294438630
-0.019400001 0.44878668 1.358 4294373607
-0.016813334 0.44878668 1.358 4294373348
-0.014331428 0.45209143 1.368 4294373602
-0.011682857 0.45043904 1.363 4294372575
-0.0090866666 0.45043904 1.363 4294372317
-0.006490476 0.45043904 1.363 4294372061
-0.0038800002 0.44878668 1.358 4294306526
-0.0012933334 0.44878668 1.358 4294241243
0.0012933334 0.44878668 1.358 4294175448
0.0038628574 0.44680384 1.3520001 4294175448
0.0064380961 0.44680384 1.3520001 4294109401
0.0090133343 0.44680384 1.3520001 4294114776
0.011588573 0.44680384 1.3520001 4294043096
0.014163811 0.44680384 1.3520001 4294043861
0.01673905 0.44680384 1.3520001 4293977555
0.019314287 0.44680384 1.3520001 4293980627
0.021889525 0.44680384 1.3520001 4293781459
0.024464764 0.44680384 1.3520001 4293650386
0.027160002 0.44878668 1.358 4293584337
0.02961524 0.44680384 1.3520001 4293518546
0.032333333 0.44878668 1.358 4293584595
0.03492 0.44878668 1.358 4293650900
0.037506666 0.44878668 1.358 4293715669
0.040093333 0.44878668 1.358 4293715159
0.042680003 0.44878668 1.358 4293781465
0.045266669 0.44878668 1.358 4293913814
0.047853336 0.44878668 1.358 4294044371
0.050440002 0.44878668 1.358 4294175189
0.053026669 0.44878668 1.358 4294307288
0.055367623 0.44680384 1.3520001 4294439383
0.058200002 0.44878668 1.358 4294505430
0.060786664 0.44878668 1.358 4294568930
0.063373335 0.44878668 1.358 4294636527
0.065960005 0.44878668 1.358 4294770161
0.068546668 0.44878668 1.358 4294835700
0.071133338 0.44878668 1.358 4294901495
0.073394291 0.44680384 1.3520001 4294901499
0.075969525 0.44680384 1.3520001 4294901500
0.078544766 0.44680384 1.3520001 4294901502
0.081479996 0.44878668 1.358 4294901502
0.084066667 0.44878668 1.358 4294901502
0.086653329 0.44878668 1.358 4294901502
0.08924 0.44878668 1.358 4294901502
0.091826662 0.44878668 1.358 4294901502
0.094413333 0.44878668 1.358 4294901502
0.097000003 0.44878668 1.358 4294901502
0.099146679 0.44680384 1.3520001 4294901502
0.10172191 0.44680384 1.3520001 4294901502
0.10429715 0.44680384 1.3520001 4294901502
0.10687239 0.44680384 1.3520001 4294901502
0.10993333 0.44878668 1.358 4294901502
0.11252 0.44878668 1.358 4294901502
0.11510667 0.44878668 1.358 4294901502
0.11769333 0.44878668 1.358 4294901502
0.11974858 0.44680384 1.3520001 4294901502
0.12286668 0.44878668 1.358 4294901502
0.12489906 0.44680384 1.3520001 4294901502
0.12747429 0.44680384 1.3520001 4294901502
0.13004954 0.44680384 1.3520001 4294901502
0.13262478 0.44680384 1.3520001 4294901502
0.13520001 0.44680384 1.3520001 4294901502
0.13838667 0.44878668 1.358 4294901502
0.14097333 0.44878668 1.358 4294901502
0.14356001 0.44878668 1.358 4294901502
0.14614667 0.44878668 1.358 4294901502
0.14807621 0.44680384 1.3520001 4294901502
0.15132 0.44878668 1.358 4294901502
0.15390667 0.44878668 1.358 4294901502
0.15580191 0.44680384 1.3520001 4294901502
0.15837716 0.44680384 1.3520001 4294901502
0.16095239 0.44680384 1.3520001 4294901502
0.16352762 0.44680384 1.3520001 4294901502
0.16684 0.44878668 1.358 4294901502
0.16942668 0.44878668 1.358 4294901502
0.17201333 0.44878668 1.358 4294901502
0.17460001 0.44878668 1.358 4294901502
0.17718667 0.44878668 1.358 4294901502
0.17977335 0.44878668 1.358 4294901502
0.18236001 0.44878668 1.358 4294901502
0.18412954 0.44680384 1.3520001 4294901502
0.18670478 0.44680384 1.3520001 4294901502
0.18858002 0.44515148 1.3470001 4294901502
0.19185525 0.44680384 1.3520001 4294901502
0.1944305 0.44680384 1.3520001 4294901502
0.19788 0.44878668 1.358 4294901502
0.20046666 0.44878668 1.358 4294901502
0.20305334 0.44878668 1.358 4294901502
0.20564 0.44878668 1.358 4294901502
0.20822667 0.44878668 1.358 4294901502
0.21158953 0.45043904 1.363 4294901502
0.21418571 0.45043904 1.363 4294901502
0.2167819 0.45043904 1.363 4294901502
0.21760763 0.44680384 1.3520001 4294901502
0.22115999 0.44878668 1.358 4294901502
0.22275811 0.44680384 1.3520001 4294901502
0.22450002 0.44515148 1.3470001 4294901496
0.22706573 0.44515148 1.3470001 4293842418
0.24497427 0.47489429 1.437 4292848830
0.24771143 0.47489429 1.437 4292063627
0.25044858 0.47489429 1.437 4291344261
0.25318572 0.47489429 1.437 4291202944
0.25699142 0.47687718 1.4430001 4291139458
0.25866002 0.47489429 1.437 4291205509
0.26139715 0.47489429 1.437 4291271809
0.26413429 0.47489429 1.437 4291140477
0.26687142 0.47489429 1.437 4291009374
0.27073431 0.47687718 1.4430001 4290351424
0.27348286 0.47687718 1.4430001 4289693852
0.27623147 0.47687718 1.4430001 4291609593
0.27898002 0.47687718 1.4430001 4293590779
0.28172857 0.47687718 1.4430001 4294246142
0.28447714 0.47687718 1.4430001 4294901502
0.28842002 0.47886002 1.4490001 4294901502
0.29118001 0.47886002 1.4490001 4294901502
0.29394001 0.47886002 1.4490001 4294901502
0.29670003 0.47886002 1.4490001 4294901502
0.29946002 0.47886002 1.4490001 4294901502
0.30222002 0.47886002 1.4490001 4294901502
0.30498004 0.47886002 1.4490001 4294901502
0.30774 0.47886002 1.4490001 4294901502
0.31050003 0.47886002 1.4490001 4294835966
0.31326002 0.47886002 1.4490001 4294835949
0.31602001 0.47886002 1.4490001 4294114013
0.31878003 0.47886002 1.4490001 4293326829
0.32154003 0.47886002 1.4490001 4293590782
0.32430002 0.47886002 1.4490001 4293917178
0.32841429 0.48084286 1.455 4292931574
0.3311857 0.48084286 1.455 4292011484
0.33395714 0.48084286 1.455 4291549122
0.33672857 0.48084286 1.455 4291152331
0.33950001 0.48084286 1.455 4291478996
0.34368289 0.48282576 1.4610001 4291747036
0.34788859 0.48480859 1.4670001 4292601061
0.35068288 0.48480859 1.4670001 4293455332
0.35347718 0.48480859 1.4670001 4292534499
0.35627145 0.48480859 1.4670001 4291610060
0.35906574 0.48480859 1.4670001 4290822582
0.36186004 0.48480859 1.4670001 4290100668
0.3646543 0.48480859 1.4670001 4290757571
0.3674486 0.48480859 1.4670001 4291416267
0.37024289 0.48480859 1.4670001 4291612627
0.37303716 0.48480859 1.4670001 4291809233
0.37583145 0.48480859 1.4670001 4291940559
0.38017431 0.48679143 1.473 4292075223
0.38298002 0.48679143 1.473 4292730336
0.38578573 0.48679143 1.473 4293390319
0.39043808 0.48910475 1.48 4294113022
0.39325714 0.48910475 1.48 4294770430
0.39768192 0.49108765 1.4860001 4294835966
0.40212953 0.49307054 1.4920001 4294901502
0.40497145 0.49307054 1.4920001 4294901502
0.40781337 0.49307054 1.4920001 4294901501
0.41258192 0.49538383 1.4990001 4294179580
0.41543716 0.49538383 1.4990001 4293451439
0.4182924 0.49538383 1.4990001 4288712547
-0.37749621 0.21704477 0.65300006 4287531407
-0.37625241 0.21704477 0.65300006 4287727758
-0.37500861 0.21704477 0.65300006 4287596685
-0.38063332 0.22103333 0.66500002 4287465611
-0.3793667 0.22103333 0.66500002 4287531145
-0.37810001 0.22103333 0.66500002 4287596426
-0.37683335 0.22103333 0.66500002 4287465612
-0.37613145 0.22136572 0.66600001 4287334800
-0.37655145 0.22236286 0.66900003 4287138709
-0.3758381 0.22269523 0.67000002 4287007122
-0.37679809 0.22402477 0.67400002 4286810255
-0.37607142 0.22435714 0.67500001 4286678406
-0.37534097 0.22468954 0.67600006 4286348157
-0.37516004 0.2253543 0.67800003 4286084218
-0.37386858 0.2253543 0.67800003 4285887095
-0.37312669 0.22568667 0.67900002 4285754738
-0.37238094 0.22601905 0.68000001 4285951342
-0.37272286 0.2270162 0.68300003 4286148211
-0.3714219 0.2270162 0.68300003 4285755256
-0.37554002 0.23034 0.69300002 4285361776
-0.37692001 0.2320019 0.69800001 4284902760
-0.37666669 0.23266669 0.70000005 4284439887
-0.37586954 0.23299906 0.70100003 4281999671
-0.37560284 0.23366381 0.70300001 4279574838
-0.37479621 0.2339962 0.70400006 4280033846
-0.37345526 0.2339962 0.70400006 4280558903
-0.37264287 0.23432858 0.70500004 4280625464
-0.37130001 0.23432858 0.70500004 4280755510
-0.45444858 0.38589427 1.161 4278782762
-0.45223713 0.38589427 1.161 4278456361
-0.45002571 0.38589427 1.161 4278718504
-0.44627145 0.38456479 1.1570001 4278979879
-0.44406763 0.38456479 1.1570001 4279045159
-0.44186383 0.38456479 1.1570001 4279110435
-0.43966004 0.38456479 1.1570001 4279110175
-0.43745622 0.38456479 1.1570001 4279110942
-0.43826193 0.38722384 1.1650001 4278980124
-0.43604288 0.38722384 1.1650001 4278849047
-0.43829241 0.39121237 1.177 4278849043
-0.4360505 0.39121237 1.177 4278914587
-0.43380859 0.39121237 1.177 4278651940
-0.43156669 0.39121237 1.177 4278455584
-0.42932478 0.39121237 1.177 4278652444
-0.42708287 0.39121237 1.177 4278914847
-0.42484096 0.39121237 1.177 4278915107
-0.42259905 0.39121237 1.177 4278980643
-0.41892859 0.38988289 1.1730001 4279111972
-0.41669431 0.38988289 1.1730001 4279308838
-0.41304666 0.38855335 1.169 4279440424
-0.41082001 0.38855335 1.169 4279637038
-0.40859333 0.38855335 1.169 4280096053
-0.40775719 0.38988289 1.1730001 4280623158
-0.40552288 0.38988289 1.1730001 4281149240
-0.4032886 0.38988289 1.1730001 4281674816
-0.3944867 0.41846764 1.2590001 4280297523
-0.3933343 0.41979715 1.263 4280559939
-0.39092857 0.41979715 1.263 4280887605
-0.38852286 0.41979715 1.263 4280425511
-0.39192575 0.42611241 1.2820001 4280034093
-0.38948381 0.42611241 1.2820001 4280100148
-0.3927781 0.43242764 1.3010001 4280165683
-0.39030004 0.43242764 1.3010001 4280428083
-0.38782194 0.43242764 1.3010001 4280689725
-0.38534382 0.43242764 1.3010001 4281017158
-0.38286573 0.43242764 1.3010001 4281344579
-0.38038766 0.43242764 1.3010001 4282134337
-0.37790954 0.43242764 1.3010001 4282990411
-0.37687433 0.43408954 1.3060001 4283589462
-0.3743867 0.43408954 1.3060001 4284246368
-0.3718991 0.43408954 1.3060001 4284378987
-0.36941144 0.43408954 1.3060001 4284509816
-0.3562476 0.42145905 1.268 4286021510
-0.35383236 0.42145905 1.268 4287531919
-0.35141715 0.42145905 1.268 4287338648
-0.34900188 0.42145905 1.268 4287140760
-0.34768003 0.42278859 1.2720001 4286943128
-0.34525716 0.42278859 1.2720001 4286745997
-0.34283429 0.42278859 1.2720001 4288318338
-0.34041142 0.42278859 1.2720001 4289896351
-0.33931717 0.42445052 1.2770001 4289704891
-0.3368848 0.42445052 1.2770001 4289507770
-0.33445239 0.42445052 1.2770001 4289441976
-0.33202001 0.42445052 1.2770001 4289442490
-0.33087811 0.42611241 1.2820001 4289707197
-0.32715526 0.42445052 1.2770001 4289967532
-0.32599428 0.42611241 1.2820001 4287855516
-0.3235524 0.42611241 1.2820001 4285823631
-0.32336473 0.42910379 1.291 4286153091
-0.32339147 0.43242764 1.3010001 4286546057
-0.32091337 0.43242764 1.3010001 4287992208
-0.32210669 0.43741336 1.3160001 4289504166
-0.31960002 0.43741336 1.3160001 4288919229
-0.31709334 0.43741336 1.3160001 4288320416
-0.31697714 0.44073719 1.3260001 4287262851
-0.31445143 0.44073719 1.3260001 4286217860
-0.17256667 0.27753809 0.83500004 4282134846
-0.17097619 0.27753809 0.83500004 4282003513
-0.16938572 0.27753809 0.83500004 4281873467
-0.16819715 0.27820286 0.83700001 4282333245
-0.16700096 0.27886763 0.83900005 4282795077
-0.16540286 0.27886763 0.83900005 4283057740
-0.16380477 0.27886763 0.83900005 4283322703
-0.16220668 0.27886763 0.83900005 4284374099
-0.16060857 0.27886763 0.83900005 4285488986
-0.15901048 0.27886763 0.83900005 4285294946
-0.15778762 0.27953237 0.84100002 4285163624
-0.069354288 0.45669144 1.3740001 4284830532
-0.066737145 0.45669144 1.3740001 4284176967
-0.063839994 0.45469713 1.368 4283581481
-0.06101048 0.45303524 1.363 4280881162
-0.058200002 0.45137334 1.358 4278270809
-0.055613335 0.45137334 1.358 4285303208
-0.052792381 0.44937909 1.3520001 4292398282
-0.050217148 0.44937909 1.3520001 4293655789
-0.047641911 0.44937909 1.3520001 4294900199
-0.04506667 0.44937909 1.3520001 4294768354
-0.042491432 0.44937909 1.3520001 4294637538
-0.039768573 0.44771716 1.3470001 4294437346
-0.037202861 0.44771716 1.3470001 4294307808
-0.034765717 0.44937909 1.3520001 4294371550
-0.032190479 0.44937909 1.3520001 4294438882
-0.02961524 0.44937909 1.3520001 4294439655
-0.027040001 0.44937909 1.3520001 4294505190
-0.024464764 0.44937909 1.3520001 4294505190
-0.021889525 0.44937909 1.3520001 4294570472
-0.019314287 0.44937909 1.3520001 4294504683
-0.01673905 0.44937909 1.3520001 4294504678
-0.014279048 0.45303524 1.363 4294439137
-0.01164 0.45137334 1.358 4294439903
-0.0090533337 0.45137334 1.358 4294368733
-0.0064666667 0.45137334 1.358 4294370270
-0.0038628574 0.44937909 1.3520001 4294371806
-0.0012876191 0.44937909 1.3520001 4294371548
0.0012876191 0.44937909 1.3520001 4294306010
0.0038628574 0.44937909 1.3520001 4294306778
0.0064380961 0.44937909 1.3520001 4294242266
0.0090133343 0.44937909 1.3520001 4294240472
0.011588573 0.44937909 1.3520001 4294173398
0.014163811 0.44937909 1.3520001 4294108117
0.01673905 0.44937909 1.3520001 4294108372
0.019314287 0.44937909 1.3520001 4294111955
0.021889525 0.44937909 1.3520001 4294044115
0.024464764 0.44937909 1.3520001 4293978067
0.027040001 0.44937909 1.3520001 4293847252
0.02961524 0.44937909 1.3520001 4293715926
0.032190479 0.44937909 1.3520001 4293715928
0.034765717 0.44937909 1.3520001 4293781461
0.037340954 0.44937909 1.3520001 4293781714
0.039916191 0.44937909 1.3520001 4293781718
0.042491432 0.44937909 1.3520001 4293913050
0.04506667 0.44937909 1.3520001 4294044118
0.047641911 0.44937909 1.3520001 4294306514
0.050217148 0.44937909 1.3520001 4294569180
0.052792381 0.44937909 1.3520001 4294635493
0.055367623 0.44937909 1.3520001 4294701797
0.05794286 0.44937909 1.3520001 4294637286
0.060518101 0.44937909 1.3520001 4294637548
0.063093342 0.44937909 1.3520001 4294769138
0.065668575 0.44937909 1.3520001 4294901236
0.068243816 0.44937909 1.3520001 4294901239
0.070819058 0.44937909 1.3520001 4294901497
0.073394291 0.44937909 1.3520001 4294901500
0.075969525 0.44937909 1.3520001 4294901501
0.078544766 0.44937909 1.3520001 4294901502
0.081120007 0.44937909 1.3520001 4294901502
0.08369524 0.44937909 1.3520001 4294901502
0.086270481 0.44937909 1.3520001 4294901501
0.088845722 0.44937909 1.3520001 4294901500
0.091420963 0.44937909 1.3520001 4294901501
0.093996197 0.44937909 1.3520001 4294901502
0.096571438 0.44937909 1.3520001 4294901501
0.099146679 0.44937909 1.3520001 4294901500
0.10172191 0.44937909 1.3520001 4294901501
0.10429715 0.44937909 1.3520001 4294901502
0.10687239 0.44937909 1.3520001 4294901502
0.10944763 0.44937909 1.3520001 4294901502
0.11202286 0.44937909 1.3520001 4294901502
0.1145981 0.44937909 1.3520001 4294901502
0.11717334 0.44937909 1.3520001 4294901502
0.11974858 0.44937909 1.3520001 4294901502
0.12232383 0.44937909 1.3520001 4294901502
0.12443715 0.44771716 1.3470001 4294901502
0.12700287 0.44771716 1.3470001 4294901502
0.12956858 0.44771716 1.3470001 4294901502
0.1321343 0.44771716 1.3470001 4294901502
0.13470002 0.44771716 1.3470001 4294901502
0.13777526 0.44937909 1.3520001 4294901502
0.14035049 0.44937909 1.3520001 4294901502
0.14292572 0.44937909 1.3520001 4294901502
0.14550097 0.44937909 1.3520001 4294901502
0.14807621 0.44937909 1.3520001 4294901502
0.15065144 0.44937909 1.3520001 4294901502
0.15322667 0.44937909 1.3520001 4294901502
0.15580191 0.44937909 1.3520001 4294901502
0.15837716 0.44937909 1.3520001 4294901502
0.16095239 0.44937909 1.3520001 4294901502
0.16352762 0.44937909 1.3520001 4294901501
0.16610287 0.44937909 1.3520001 4294901501
0.1686781 0.44937909 1.3520001 4294901501
0.17125334 0.44937909 1.3520001 4294901502
0.17382859 0.44937909 1.3520001 4294901502
0.17640382 0.44937909 1.3520001 4294901502
0.17897905 0.44937909 1.3520001 4294901502
0.1815543 0.44937909 1.3520001 4294901502
0.18412954 0.44937909 1.3520001 4294901502
0.18670478 0.44937909 1.3520001 4294901502
0.18858002 0.44771716 1.3470001 4294901502
0.19185525 0.44937909 1.3520001 4294901502
0.19371144 0.44771716 1.3470001 4294901502
0.19700573 0.44937909 1.3520001 4294901502
0.19958097 0.44937909 1.3520001 4294901502
0.20215622 0.44937909 1.3520001 4294901502
0.20473145 0.44937909 1.3520001 4294901502
0.20730668 0.44937909 1.3520001 4294901502
0.20988192 0.44937909 1.3520001 4294901502
0.21245715 0.44937909 1.3520001 4294901502
0.21598667 0.45137334 1.358 4294901502
0.21760763 0.44937909 1.3520001 4294901502
0.22018287 0.44937909 1.3520001 4294901502
0.22275811 0.44937909 1.3520001 4294901502
0.22533335 0.44937909 1.3520001 4294901466
0.22706573 0.44771716 1.3470001 4292848822
0.24497427 0.47763142 1.437 4290818730
0.24771143 0.47763142 1.437 4291287454
0.25044858 0.47763142 1.437 4291736975
0.25318572 0.47763142 1.437 4291531136
0.25592285 0.47763142 1.437 4291402114
0.25866002 0.47763142 1.437 4291337093
0.26139715 0.47763142 1.437 4291271296
0.26413429 0.47763142 1.437 4291272571
0.26687142 0.47763142 1.437 4291272044
0.27073431 0.47962573 1.4430001 4290614877
0.27348286 0.47962573 1.4430001 4289956736
0.27623147 0.47962573 1.4430001 4291066531
0.27898002 0.47962573 1.4430001 4292271568
0.28172857 0.47962573 1.4430001 4293590782
0.28447714 0.47962573 1.4430001 4294901502
0.28722572 0.47962573 1.4430001 4294901502
0.2899743 0.47962573 1.4430001 4294901502
0.29272285 0.47962573 1.4430001 4294901502
0.29670003 0.48162004 1.4490001 4294901502
0.29946002 0.48162004 1.4490001 4294901502
0.30222002 0.48162004 1.4490001 4294901502
0.30498004 0.48162004 1.4490001 4294901502
0.30774 0.48162004 1.4490001 4294901502
0.31050003 0.48162004 1.4490001 4294835966
0.31326002 0.48162004 1.4490001 4294834924
0.31602001 0.48162004 1.4490001 4294171610
0.31878003 0.48162004 1.4490001 4293521385
0.32154003 0.48162004 1.4490001 4293197560
0.32564288 0.4836143 1.455 4292925406
0.32841429 0.4836143 1.455 4291011268
0.3311857 0.4836143 1.455 4289112250
0.33395714 0.4836143 1.455 4289703601
0.33672857 0.4836143 1.455 4290295481
0.3409 0.48560861 1.4610001 4290363074
0.34368289 0.48560861 1.4610001 4290494924
0.34646574 0.48560861 1.4610001 4291347669
0.35068288 0.48760289 1.4670001 4292268504
0.35347718 0.48760289 1.4670001 4292075227
0.35627145 0.48760289 1.4670001 4291871685
0.35906574 0.48760289 1.4670001 4290753200
0.36186004 0.48760289 1.4670001 4289640630
0.3646543 0.48760289 1.4670001 4290495164
0.3674486 0.48760289 1.4670001 4291348423
0.37024289 0.48760289 1.4670001 4291481043
0.37303716 0.48760289 1.4670001 4291612626
0.37583145 0.48760289 1.4670001 4291809490
0.37862575 0.48760289 1.4670001 4292072660
0.38298002 0.48959717 1.473 4292270295
0.38578573 0.48959717 1.473 4292533732
0.38859144 0.48959717 1.473 4293583601
0.39139715 0.48959717 1.473 4294704631
0.3960762 0.49192381 1.48 4294770430
0.4005124 0.49391809 1.4860001 4294901502
0.40334287 0.49391809 1.4860001 4294901502
0.40453333 0.49192381 1.48 4294901498
0.40735239 0.49192381 1.48 4294508279
0.41017142 0.49192381 1.48 4294174391
0.41299048 0.49192381 1.48 4288845686
-0.37625241 0.21828859 0.65300006 4287531405
-0.37500861 0.21828859 0.65300006 4287465358
-0.3789162 0.22129716 0.66200006 4287464590
-0.3793667 0.22230001 0.66500002 4287400078
-0.37866858 0.22263429 0.66600001 4287399821
-0.37683335 0.22230001 0.66500002 4287334796
-0.37782571 0.22363715 0.66900003 4287269517
-0.3771143 0.22397144 0.67000002 4287203727
-0.37639904 0.2243057 0.671 4287137933
-0.37679809 0.22530857 0.67400002 4286941324
-0.37662858 0.22597715 0.67600006 4286744710
-0.37645143 0.22664572 0.67800003 4286413441
-0.37516004 0.22664572 0.67800003 4286084989
-0.37442002 0.22698 0.67900002 4285820281
-0.37367621 0.22731429 0.68000001 4285623413
-0.37238094 0.22731429 0.68000001 4285754738
-0.37272286 0.22831716 0.68300003 4285885810
-0.3714219 0.22831716 0.68300003 4285624179
-0.37824953 0.23333143 0.69800001 4285296243
-0.37692001 0.23333143 0.69800001 4285097588
-0.37720478 0.23433429 0.70100003 4284898900
-0.37586954 0.23433429 0.70100003 4282133812
-0.37560284 0.23500286 0.70300001 4279377206
-0.37479621 0.23533715 0.70400006 4279770424
-0.37345526 0.23533715 0.70400006 4280163637
-0.37264287 0.23567145 0.70500004 4280163122
-0.37130001 0.23567145 0.70500004 4280097330
-0.45666 0.38810572 1.161 4279045661
-0.45288289 0.38676858 1.1570001 4278849065
-0.45067906 0.38676858 1.1570001 4278718758
-0.45002571 0.38810572 1.161 4278849572
-0.44627145 0.38676858 1.1570001 4278979621
-0.44406763 0.38676858 1.1570001 4279045159
-0.44186383 0.38676858 1.1570001 4279110179
-0.43966004 0.38676858 1.1570001 4278979360
-0.43745622 0.38676858 1.1570001 4278914078
-0.4352524 0.38676858 1.1570001 4278849308
-0.43304858 0.38676858 1.1570001 4278849563
-0.43829241 0.39345428 1.177 4278914587
-0.4360505 0.39345428 1.177 4278980132
-0.43380859 0.39345428 1.177 4278783533
-0.43156669 0.39345428 1.177 4278586917
-0.42932478 0.39345428 1.177 4278717982
-0.42708287 0.39345428 1.177 4278785057
-0.42484096 0.39345428 1.177 4278718500
-0.4211629 0.39211717 1.1730001 4278718245
-0.41892859 0.39211717 1.1730001 4278980902
-0.41669431 0.39211717 1.1730001 4279309607
-0.41304666 0.39078 1.169 4279571753
-0.41082001 0.39078 1.169 4279835440
-0.40859333 0.39078 1.169 4280295480
-0.40636665 0.39078 1.169 4280755769
-0.40552288 0.39211717 1.1730001 4281084731
-0.40191334 0.39078 1.169 4281413956
-0.39968669 0.39078 1.169 4281020494
-0.39882004 0.39211717 1.1730001 4280625731
-0.39658573 0.39211717 1.1730001 4280296761
-0.39569619 0.39345428 1.177 4280032311
-0.39345428 0.39345428 1.177 4280229686
-0.39121237 0.39345428 1.177 4280493365
-0.38897046 0.39345428 1.177 4280691764
-0.39489144 0.42387429 1.268 4280298318
-0.39371431 0.42521143 1.2720001 4280495412
-0.39129144 0.42521143 1.2720001 4280231962
-0.39192575 0.4285543 1.2820001 4279968807
-0.39100286 0.43022573 1.2870001 4280100148
-0.39126858 0.43323427 1.296 4280231479
-0.39030004 0.43490574 1.3010001 4280493882
-0.38782194 0.43490574 1.3010001 4280756800
-0.38534382 0.43490574 1.3010001 4281346119
-0.38286573 0.43490574 1.3010001 4282000955
-0.38038766 0.43490574 1.3010001 4282662192
-0.37790954 0.43490574 1.3010001 4283389263
-0.37543145 0.43490574 1.3010001 4283984239
-0.37295339 0.43490574 1.3010001 4284574833
-0.35851523 0.42086574 1.2590001 4284902772
-0.35611713 0.42086574 1.2590001 4285165453
-0.35484284 0.42220289 1.263 4286550182
-0.35243714 0.42220289 1.263 4287867294
-0.35003141 0.42220289 1.263 4287337878
-0.3476257 0.42220289 1.263 4286812055
-0.34658667 0.42387429 1.268 4286940568
-0.34417143 0.42387429 1.268 4287134616
-0.34283429 0.42521143 1.2720001 4288586393
-0.34041142 0.42521143 1.2720001 4290038186
-0.33798859 0.42521143 1.2720001 4289770428
-0.33556575 0.42521143 1.2720001 4289507003
-0.33445239 0.42688286 1.2770001 4289704378
-0.33202001 0.42688286 1.2770001 4289967293
-0.32958764 0.42688286 1.2770001 4289114304
-0.32843623 0.4285543 1.2820001 4288261535
-0.32726574 0.43022573 1.2870001 4287068286
-0.32481429 0.43022573 1.2870001 4285954176
-0.32236287 0.43022573 1.2870001 4286347907
-0.32214859 0.43323427 1.296 4286741653
-0.32091337 0.43490574 1.3010001 4288063144
-0.31843525 0.43490574 1.3010001 4289446315
-0.31960002 0.43992004 1.3160001 4288322990
-0.31709334 0.43992004 1.3160001 4287128218
-0.17606382 0.27712288 0.82900006 4280163913
-0.17490572 0.27779141 0.83100003 4281282891
-0.17374001 0.27846003 0.83300006 4281610573
-0.17215335 0.27846003 0.83300006 4282004036
-0.17015715 0.27779141 0.83100003 4282003516
-0.16857429 0.27779141 0.83100003 4282068287
-0.16739334 0.27846003 0.83300006 4282531138
-0.16620478 0.27912858 0.83500004 4282992972
-0.16500857 0.27979717 0.83700001 4283321430
-0.16341428 0.27979717 0.83700001 4283716437
-0.16181999 0.27979717 0.83700001 4284636756
-0.16022572 0.27979717 0.83700001 4285555805
-0.15825239 0.27912858 0.83500004 4285293926
-0.15666191 0.27912858 0.83500004 4285097839
-0.069051422 0.45730284 1.368 4285032785
-0.066445716 0.45730284 1.368 4284438081
-0.063606672 0.45563143 1.363 4283847722
-0.060786664 0.45396 1.358 4282200340
-0.058200002 0.45396 1.358 4280551226
-0.055367623 0.45195431 1.3520001 4282927712
-0.052792381 0.45195431 1.3520001 4285308325
-0.050031431 0.4502829 1.3470001 4289712107
-0.047465719 0.4502829 1.3470001 4294114535
-0.044900004 0.4502829 1.3470001 4294441443
-0.042334288 0.4502829 1.3470001 4294768352
-0.039768573 0.4502829 1.3470001 4294570717
-0.037202861 0.4502829 1.3470001 4294438877
-0.034637146 0.4502829 1.3470001 4294439133
-0.032190479 0.45195431 1.3520001 4294439652
-0.029505717 0.4502829 1.3470001 4294373355
-0.026940003 0.4502829 1.3470001 4294372585
-0.024374288 0.4502829 1.3470001 4294438375
-0.021808574 0.4502829 1.3470001 4294572523
-0.019242859 0.4502829 1.3470001 4294505455
-0.016677145 0.4502829 1.3470001 4294506472
-0.014226668 0.45396 1.358 4294505441
-0.011588573 0.45195431 1.3520001 4294572767
-0.0090133343 0.45195431 1.3520001 4294573278
-0.0064380961 0.45195431 1.3520001 4294573790
-0.0038628574 0.45195431 1.3520001 4294503903
-0.0012876191 0.45195431 1.3520001 4294505181
0.0012876191 0.45195431 1.3520001 4294505436
0.0038628574 0.45195431 1.3520001 4294571483
0.0064380961 0.45195431 1.3520001 4294504667
0.0090133343 0.45195431 1.3520001 4294503640
0.011588573 0.45195431 1.3520001 4294438869
0.014111429 0.4502829 1.3470001 4294439637
0.01673905 0.45195431 1.3520001 4294439893
0.019242859 0.4502829 1.3470001 4294440148
0.021808574 0.4502829 1.3470001 4294307539
0.024374288 0.4502829 1.3470001 4294240213
0.026940003 0.4502829 1.3470001 4294174424
0.02961524 0.45195431 1.3520001 4294108891
0.032190479 0.45195431 1.3520001 4294175454
0.034765717 0.45195431 1.3520001 4294242775
0.037340954 0.45195431 1.3520001 4294242768
0.039916191 0.45195431 1.3520001 4294243029
0.042334288 0.4502829 1.3470001 4294308827
0.044900004 0.4502829 1.3470001 4294440406
0.047465719 0.4502829 1.3470001 4294505426
0.050031431 0.4502829 1.3470001 4294570722
0.052597146 0.4502829 1.3470001 4294703347
0.055162862 0.4502829 1.3470001 4294770420
0.057728577 0.4502829 1.3470001 4294770422
0.060294289 0.4502829 1.3470001 4294770422
0.062860005 0.4502829 1.3470001 4294835958
0.065425716 0.4502829 1.3470001 4294901496
0.067991436 0.4502829 1.3470001 4294901498
0.070557147 0.4502829 1.3470001 4294901500
0.073122866 0.4502829 1.3470001 4294901502
0.075688578 0.4502829 1.3470001 4294901502
0.07825429 0.4502829 1.3470001 4294901502
0.080820009 0.4502829 1.3470001 4294901502
0.083385721 0.4502829 1.3470001 4294901502
0.085951433 0.4502829 1.3470001 4294901500
0.088517152 0.4502829 1.3470001 4294901499
0.091082864 0.4502829 1.3470001 4294901500
0.093648575 0.4502829 1.3470001 4294901502
0.096214294 0.4502829 1.3470001 4294901500
0.098780006 0.4502829 1.3470001 4294901498
0.10134573 0.4502829 1.3470001 4294901500
0.10391144 0.4502829 1.3470001 4294901502
0.10647715 0.4502829 1.3470001 4294901502
0.10944763 0.45195431 1.3520001 4294901502
0.11202286 0.45195431 1.3520001 4294901502
0.1145981 0.45195431 1.3520001 4294901502
0.11674001 0.4502829 1.3470001 4294901502
0.11930572 0.4502829 1.3470001 4294901502
0.12187144 0.4502829 1.3470001 4294901502
0.12443715 0.4502829 1.3470001 4294901502
0.12653142 0.44861141 1.342 4294901502
0.12908763 0.44861141 1.342 4294901502
0.1316438 0.44861141 1.342 4294901502
0.13360001 0.44660574 1.3360001 4294901502
0.13675618 0.44861141 1.342 4294901502
0.13931239 0.44861141 1.342 4294901502
0.14239715 0.4502829 1.3470001 4294901502
0.14496286 0.4502829 1.3470001 4294901502
0.14752859 0.4502829 1.3470001 4294901502
0.1500943 0.4502829 1.3470001 4294901502
0.15266001 0.4502829 1.3470001 4294901502
0.15522572 0.4502829 1.3470001 4294901502
0.15779144 0.4502829 1.3470001 4294901502
0.16095239 0.45195431 1.3520001 4294901502
0.16352762 0.45195431 1.3520001 4294901501
0.16610287 0.45195431 1.3520001 4294901501
0.1686781 0.45195431 1.3520001 4294901501
0.17125334 0.45195431 1.3520001 4294901502
0.17382859 0.45195431 1.3520001 4294901502
0.17640382 0.45195431 1.3520001 4294901502
0.17831716 0.4502829 1.3470001 4294901502
0.18088287 0.4502829 1.3470001 4294901502
0.18344858 0.4502829 1.3470001 4294901502
0.18601429 0.4502829 1.3470001 4294901502
0.18858002 0.4502829 1.3470001 4294901502
0.19114573 0.4502829 1.3470001 4294901502
0.19371144 0.4502829 1.3470001 4294901502
0.19627716 0.4502829 1.3470001 4294901502
0.19958097 0.45195431 1.3520001 4294901502
0.20215622 0.45195431 1.3520001 4294901502
0.20473145 0.45195431 1.3520001 4294901502
0.20654002 0.4502829 1.3470001 4294901502
0.20988192 0.45195431 1.3520001 4294901502
0.21245715 0.45195431 1.3520001 4294901502
0.2150324 0.45195431 1.3520001 4294901502
0.21760763 0.45195431 1.3520001 4294901502
0.22018287 0.45195431 1.3520001 4294901502
0.22275811 0.45195431 1.3520001 4293983998
0.22533335 0.45195431 1.3520001 4293066428
0.22706573 0.4502829 1.3470001 4292722811
0.24395144 0.47836289 1.4310001 4292393110
0.24667716 0.47836289 1.4310001 4291398834
0.25044858 0.48036858 1.437 4290470297
0.25318572 0.48036858 1.437 4291006848
0.25592285 0.48036858 1.437 4291535234
0.25866002 0.48036858 1.437 4291402373
0.26139715 0.48036858 1.437 4291336575
0.26413429 0.48036858 1.437 4291337849
0.26687142 0.48036858 1.437 4291338105
0.27073431 0.48237431 1.4430001 4291009146
0.27348286 0.48237431 1.4430001 4290678627
0.27623147 0.48237431 1.4430001 4290543693
0.27898002 0.48237431 1.4430001 4290428069
0.28172857 0.48237431 1.4430001 4292666878
0.28447714 0.48237431 1.4430001 4294901502
0.28722572 0.48237431 1.4430001 4294901502
0.2899743 0.48237431 1.4430001 4294901502
0.29272285 0.48237431 1.4430001 4294901502
0.29547146 0.48237431 1.4430001 4294901502
0.29946002 0.48438004 1.4490001 4294901502
0.30222002 0.48438004 1.4490001 4294901502
0.30498004 0.48438004 1.4490001 4294901502
0.30774 0.48438004 1.4490001 4294901502
0.31050003 0.48438004 1.4490001 4294507518
0.31326002 0.48438004 1.4490001 4294113258
0.31602001 0.48438004 1.4490001 4293776855
0.32010001 0.48638573 1.455 4293388260
0.32287145 0.48638573 1.455 4292471282
0.32430002 0.48438004 1.4490001 4291540418
0.32841429 0.48638573 1.455 4289434002
0.33255145 0.48839146 1.4610001 4287399065
0.33395714 0.48638573 1.455 4287599264
0.33672857 0.48638573 1.455 4287799720
0.3409 0.48839146 1.4610001 4288326065
0.34368289 0.48839146 1.4610001 4288852411
0.34646574 0.48839146 1.4610001 4289839046
0.35068288 0.49039719 1.4670001 4290891469
0.35347718 0.49039719 1.4670001 4291020756
0.35627145 0.49039719 1.4670001 4291150271
0.35906574 0.49039719 1.4670001 4290491306
0.36334002 0.49240285 1.473 4289836207
0.3646543 0.49039719 1.4670001 4290428341
0.3674486 0.49039719 1.4670001 4291019972
0.37024289 0.49039719 1.4670001 4291217619
0.37303716 0.49039719 1.4670001 4291416020
0.37583145 0.49039719 1.4670001 4291481814
0.37862575 0.49039719 1.4670001 4291547858
0.38142002 0.49039719 1.4670001 4291679182
0.38578573 0.49240285 1.473 4291876313
0.38859144 0.49240285 1.473 4292663525
0.39139715 0.49240285 1.473 4293524721
0.3960762 0.49474284 1.48 4293721598
0.39700857 0.49240285 1.473 4293983998
0.4017143 0.49474284 1.48 4293983998
0.40261999 0.49240285 1.473 4294049528
0.40377432 0.49039719 1.4670001 4293129971
0.40490574 0.48839146 1.4610001 4292210622
-0.38120571 0.22390287 0.66600001 4287465357
-0.37993714 0.22390287 0.66600001 4287334548
-0.37866858 0.22390287 0.66600001 4287268753
-0.37740001 0.22390287 0.66600001 4287203982
-0.37669623 0.22423907 0.66700006 4287203725
-0.37655145 0.22491144 0.66900003 4287203725
-0.37527716 0.22491144 0.66900003 4287269003
-0.37679809 0.22659239 0.67400002 4287072138
-0.37662858 0.22726478 0.67600006 4286875271
-0.37645143 0.22793716 0.67800003 4286478980
-0.37516004 0.22793716 0.67800003 4286150783
-0.37442002 0.22827335 0.67900002 4285819258
-0.37367621 0.22860953 0.68000001 4285492343
-0.37238094 0.22860953 0.68000001 4285558388
-0.37272286 0.2296181 0.68300003 4285689459
-0.3714219 0.2296181 0.68300003 4285493106
-0.37770763 0.23432477 0.69700003 4285296243
-0.37854001 0.23566954 0.70100003 4285358197
-0.37720478 0.23566954 0.70100003 4285425235
-0.37694189 0.23634189 0.70300001 4282268209
-0.37613717 0.23667811 0.70400006 4279177258
-0.37479621 0.23667811 0.70400006 4279506978
-0.37398574 0.23701431 0.70500004 4279834152
-0.37264287 0.23701431 0.70500004 4279637039
-0.37130001 0.23701431 0.70500004 4279506478
-0.45666 0.39031714 1.161 4278914595
-0.45288289 0.3889724 1.1570001 4278914603
-0.45067906 0.3889724 1.1570001 4278980392
-0.45002571 0.39031714 1.161 4278980902
-0.44627145 0.3889724 1.1570001 4278979363
-0.44406763 0.3889724 1.1570001 4279045152
-0.44339144 0.39031714 1.161 4279110687
-0.44118002 0.39031714 1.161 4278914079
-0.43896857 0.39031714 1.161 4278783516
-0.43675715 0.39031714 1.161 4278784281
-0.43304858 0.3889724 1.1570001 4278849302
-0.43978196 0.39704099 1.1810001 4278980114
-0.4360505 0.39569619 1.177 4279110939
-0.43380859 0.39569619 1.177 4278914339
-0.43156669 0.39569619 1.177 4278783262
-0.42932478 0.39569619 1.177 4278717976
-0.42563143 0.39435145 1.1730001 4278718239
-0.42484096 0.39569619 1.177 4278587429
-0.4211629 0.39435145 1.1730001 4278456359
-0.41892859 0.39435145 1.1730001 4278849833
-0.41669431 0.39435145 1.1730001 4279309355
-0.41446003 0.39435145 1.1730001 4279637805
-0.41082001 0.39300668 1.169 4280033842
-0.40999144 0.39435145 1.1730001 4280428599
-0.40775719 0.39435145 1.1730001 4280888378
-0.40552288 0.39435145 1.1730001 4281020477
-0.40191334 0.39300668 1.169 4281217345
-0.39968669 0.39300668 1.169 4280824389
-0.39882004 0.39435145 1.1730001 4280493880
-0.39658573 0.39435145 1.1730001 4280034091
-0.39435145 0.39435145 1.1730001 4279575089
-0.39345428 0.39569619 1.177 4280099127
-0.39121237 0.39569619 1.177 4280624956
-0.38897046 0.39569619 1.177 4280824385
-0.3933343 0.42460856 1.263 4280102470
-0.39371431 0.4276343 1.2720001 4280102455
-0.39129144 0.4276343 1.2720001 4279971369
-0.39192575 0.43099621 1.2820001 4279905073
-0.38948381 0.43099621 1.2820001 4280100920
-0.38855141 0.43267718 1.2870001 4280297531
-0.38730001 0.43402189 1.291 4280559679
-0.38633144 0.43570286 1.296 4280886848
-0.38386285 0.43570286 1.296 4281735489
-0.38139427 0.43570286 1.296 4282661194
-0.37892571 0.43570286 1.296 4283260755
-0.37645712 0.43570286 1.296 4283852644
-0.37398857 0.43570286 1.296 4284378997
-0.37152001 0.43570286 1.296 4284968820
-0.35851523 0.42326385 1.2590001 4285430900
-0.35611713 0.42326385 1.2590001 4285892746
-0.35484284 0.42460856 1.263 4287079072
-0.35132098 0.42326385 1.2590001 4288256666
-0.34892288 0.42326385 1.2590001 4287402901
-0.34652478 0.42326385 1.2590001 4286548112
-0.34522 0.42460856 1.263 4286999436
-0.3428143 0.42460856 1.263 4287535774
-0.34040859 0.42460856 1.263 4288854448
-0.33934096 0.42628953 1.268 4290164408
-0.33692572 0.42628953 1.268 4289836225
-0.33451048 0.42628953 1.268 4289573823
-0.33314288 0.4276343 1.2720001 4290032574
-0.33202001 0.42931527 1.2770001 4290490808
-0.32958764 0.42931527 1.2770001 4288524466
-0.32843623 0.43099621 1.2820001 4286550935
-0.32726574 0.43267718 1.2870001 4286281340
-0.32481429 0.43267718 1.2870001 4286084733
-0.32336473 0.43402189 1.291 4286478207
-0.32090569 0.43402189 1.291 4286943387
-0.31844667 0.43402189 1.291 4288199863
-0.31843525 0.43738386 1.3010001 4289441195
-0.17563905 0.27802953 0.82700002 4280693315
-0.17448477 0.27870193 0.82900006 4281414724
-0.17290573 0.27870193 0.82900006 4281611845
-0.17132667 0.27870193 0.82900006 4281873216
-0.16974764 0.27870193 0.82900006 4282069307
-0.16816857 0.27870193 0.82900006 4282333504
-0.16699143 0.2793743 0.83100003 4282729029
-0.16540857 0.2793743 0.83100003 4283189838
-0.16461429 0.28071904 0.83500004 4283650135
-0.16302381 0.28071904 0.83500004 4284110167
-0.16143334 0.28071904 0.83500004 4284899415
-0.15984286 0.28071904 0.83500004 4285686877
-0.15825239 0.28071904 0.83500004 4285359204
-0.15666191 0.28071904 0.83500004 4285031530
-0.069051422 0.45990857 1.368 4285230935
-0.066202857 0.45822763 1.363 4284633920
-0.063606672 0.45822763 1.363 4284109618
-0.060518101 0.45452955 1.3520001 4283519781
-0.05794286 0.45452955 1.3520001 4282920759
-0.055367623 0.45452955 1.3520001 4280552521
-0.052597146 0.45284858 1.3470001 4278276985
-0.050031431 0.45284858 1.3470001 4285768617
-0.047465719 0.45284858 1.3470001 4293319366
-0.044900004 0.45284858 1.3470001 4294114532
-0.042177141 0.45116761 1.342 4294900197
-0.039620955 0.45116761 1.342 4294701797
-0.037064761 0.45116761 1.342 4294570719
-0.034508571 0.45116761 1.342 4294505433
-0.031952381 0.45116761 1.342 4294439903
-0.029396191 0.45116761 1.342 4294306534
-0.026839999 0.45116761 1.342 4294240741
-0.02428381 0.45116761 1.342 4294371556
-0.021727618 0.45116761 1.342 4294572008
-0.01917143 0.45116761 1.342 4294504171
-0.016615236 0.45116761 1.342 4294505191
-0.014163811 0.45452955 1.3520001 4294569444
-0.011588573 0.45452955 1.3520001 4294703075
-0.0090133343 0.45452955 1.3520001 4294702818
-0.0064142863 0.45284858 1.3470001 4294767585
-0.0038485718 0.45284858 1.3470001 4294701537
-0.0012828573 0.45284858 1.3470001 4294702303
0.0012828573 0.45284858 1.3470001 4294768606
0.0038485718 0.45284858 1.3470001 4294833630
0.0064142863 0.45284858 1.3470001 4294834911
0.0089800004 0.45284858 1.3470001 4294834401
0.011545715 0.45284858 1.3470001 4294768355
0.014111429 0.45284858 1.3470001 4294768097
