# .PCD v0.7 - Point Cloud Data file format
VERSION 0.7
FIELDS x y z rgba
SIZE 4 4 4 4
TYPE F F F U
COUNT 1 1 1 1
WIDTH 1100
HEIGHT 1
VIEWPOINT 0 0 0 1 0 0 0
POINTS 1100
DATA ascii
-0.087465718 0.19394574 1.3310001 4286840425
-0.028097145 0.13026859 0.89400005 4287364717
-0.026394285 0.13026859 0.89400005 4287233637
-0.024691431 0.13026859 0.89400005 4287102563
-0.02309143 0.13085143 0.89800006 4287102562
-0.021285716 0.13026859 0.89400005 4287102555
-0.019626666 0.13056 0.89600003 4287037012
-0.017960001 0.13085143 0.89800006 4286971491
-0.016303809 0.13128857 0.90100002 4286905970
-0.014587619 0.13128857 0.90100002 4286905972
-0.012828573 0.13085143 0.89800006 4287168118
-0.011031428 0.12983142 0.89100003 4287430259
-0.0093342857 0.12983142 0.89100003 4287102576
-0.0076628574 0.13026859 0.89400005 4286840429
-0.0059733335 0.13056 0.89600003 4286905963
-0.004257143 0.13026859 0.89400005 4286971493
-0.0025457144 0.12983142 0.89100003 4287037024
-0.00084666669 0.12954001 0.88900006 4287168102
0.00084666669 0.12954001 0.88900006 4287299181
0.0025400002 0.12954001 0.88900006 4287495797
0.0042333333 0.12954001 0.88900006 4287561341
0.0059133335 0.12924857 0.88700002 4287626864
0.0076028574 0.12924857 0.88700002 4287888995
0.0092923809 0.12924857 0.88700002 4288216676
0.010944762 0.12881143 0.88400006 4287954534
0.012628572 0.12881143 0.88400006 4287692387
0.016050477 0.12924857 0.88700002 4287954526
0.017680001 0.12881143 0.88400006 4288216669
0.019320002 0.12852 0.88200003 4288478818
0.021000002 0.12852 0.88200003 4288216680
0.23611715 0.21376288 1.4670001 4278852108
0.23891145 0.21376288 1.4670001 4278720521
0.24071716 0.21288858 1.4610001 4278654471
0.24350001 0.21288858 1.4610001 4278654218
0.24628288 0.21288858 1.4610001 4278785037
0.24804287 0.21201429 1.455 4278915850
0.25081429 0.21201429 1.455 4278849799
0.25358573 0.21201429 1.455 4278784263
0.25530002 0.21114002 1.4490001 4278653447
0.25806001 0.21114002 1.4490001 4278588166
0.25974002 0.21026573 1.4430001 4278719494
0.26358002 0.21114002 1.4490001 4278915850
0.26523715 0.21026573 1.4430001 4278915854
0.26798573 0.21026573 1.4430001 4278981393
0.27073431 0.21026573 1.4430001 4278981396
0.27462 0.21114002 1.4490001 4278981140
0.27738002 0.21114002 1.4490001 4278980884
0.28014004 0.21114002 1.4490001 4278981139
0.28290001 0.21114002 1.4490001 4278850322
0.28566003 0.21114002 1.4490001 4278719504
0.28842002 0.21114002 1.4490001 4278654221
0.2899743 0.21026573 1.4430001 4278587918
0.29272285 0.21026573 1.4430001 4278784271
0.29424286 0.20939143 1.437 4278981911
0.29697999 0.20939143 1.437 4279375903
0.29971713 0.20939143 1.437 4279835676
-0.49426287 0.16060954 1.0880001 4291546573
-0.49219051 0.16060954 1.0880001 4291612622
-0.49146953 0.16105239 1.0910001 4291678676
-0.48939145 0.16105239 1.0910001 4291481306
-0.48597336 0.16060954 1.0880001 4291284692
-0.48390099 0.16060954 1.0880001 4291219406
-0.48492858 0.16164286 1.095 4291219650
-0.49985433 0.18850954 1.2770001 4289046697
-0.49936953 0.18924762 1.2820001 4288718499
-0.49692765 0.18924762 1.2820001 4288455581
-0.49641433 0.18998572 1.2870001 4288192926
-0.49741715 0.19131429 1.296 4287405471
-0.49685815 0.19205239 1.3010001 4286618006
-0.49946383 0.19500478 1.3210001 4285828754
-0.49694765 0.19500478 1.3210001 4286285206
-0.4963029 0.19574288 1.3260001 4286678415
-0.49377719 0.19574288 1.3260001 4286022280
-0.49125144 0.19574288 1.3260001 4285366402
-0.48872575 0.19574288 1.3260001 4286020732
-0.4898667 0.19721906 1.3360001 4286678640
-0.48732191 0.19721906 1.3360001 4286417253
-0.31746 0.18998572 1.2870001 4282532926
-0.31500858 0.18998572 1.2870001 4282599228
-0.31134287 0.18924762 1.2820001 4282533690
-0.30890095 0.18924762 1.2820001 4282468152
-0.30645907 0.18924762 1.2820001 4282402102
-0.30615145 0.19057618 1.291 4282270520
-0.30275142 0.18998572 1.2870001 4282204474
-0.3003 0.18998572 1.2870001 4282204215
-0.29784858 0.18998572 1.2870001 4282138420
-0.26434761 0.19057618 1.291 4282915873
-0.26188856 0.19057618 1.291 4283179559
-0.26043427 0.19131429 1.296 4283312685
-0.25796571 0.19131429 1.296 4283446068
-0.25549716 0.19131429 1.296 4283579196
-0.25127146 0.18998572 1.2870001 4283647037
-0.24882001 0.18998572 1.2870001 4283646527
-0.24541143 0.18924762 1.2820001 4283646010
-0.24296953 0.18924762 1.2820001 4283516213
-0.24146573 0.18998572 1.2870001 4283452211
-0.23808572 0.18924762 1.2820001 4282797618
-0.23564382 0.18924762 1.2820001 4282143031
-0.23411144 0.18998572 1.2870001 4282732861
-0.23238 0.19057618 1.291 4283322696
-0.22992095 0.19057618 1.291 4283323220
-0.22675715 0.18998572 1.2870001 4283323988
-0.22430572 0.18998572 1.2870001 4283062612
-0.22185428 0.18998572 1.2870001 4282867032
-0.21940286 0.18998572 1.2870001 4282998621
-0.21762572 0.19057618 1.291 4283195998
-0.21516667 0.19057618 1.291 4283260256
-0.21270762 0.19057618 1.291 4283324502
-0.21269144 0.19279049 1.3060001 4283588173
-0.21020383 0.19279049 1.3060001 4283852108
-0.20771621 0.19279049 1.3060001 4284048972
-0.20522858 0.19279049 1.3060001 4284245839
-0.20274097 0.19279049 1.3060001 4284377171
-0.20025335 0.19279049 1.3060001 4284443217
-0.19776574 0.19279049 1.3060001 4284643664
-0.19527811 0.19279049 1.3060001 4284909922
-0.19279049 0.19279049 1.3060001 4284980340
-0.19030288 0.19279049 1.3060001 4285050695
-0.18781526 0.19279049 1.3060001 4285252890
-0.18532762 0.19279049 1.3060001 4285389586
-0.18284 0.19279049 1.3060001 4285653770
-0.18035239 0.19279049 1.3060001 4285918238
-0.17718382 0.19205239 1.3010001 4285853747
-0.17537715 0.19279049 1.3060001 4285789508
-0.17288953 0.19279049 1.3060001 4286052694
-0.17105429 0.19352859 1.3110001 4286381653
-0.16855715 0.19352859 1.3110001 4286578260
-0.029700002 0.13152859 0.89100003 4287299190
-0.028097145 0.13197143 0.89400005 4287429996
-0.026305715 0.13152859 0.89100003 4287233635
-0.024608571 0.13152859 0.89100003 4287102563
-0.022988571 0.13197143 0.89400005 4287037027
-0.021214288 0.13152859 0.89100003 4287036515
-0.019517142 0.13152859 0.89100003 4287036771
-0.017820001 0.13152859 0.89100003 4287036518
-0.016122857 0.13152859 0.89100003 4286971497
-0.014506667 0.13226667 0.89600003 4286905963
-0.012771429 0.13197143 0.89400005 4287037037
-0.011006667 0.13123335 0.88900006 4287168118
-0.0093133338 0.13123335 0.88900006 4286971519
-0.0076800003 0.13226667 0.89600003 4286774900
-0.0059866668 0.13256191 0.89800006 4286840425
-0.0042666667 0.13226667 0.89600003 4286905707
-0.0025457144 0.13152859 0.89100003 4286905710
-0.00084857148 0.13152859 0.89100003 4286971247
0.00084666669 0.13123335 0.88900006 4287102577
0.0025400002 0.13123335 0.88900006 4287233660
0.0042238096 0.1309381 0.88700002 4287299207
0.0059133335 0.1309381 0.88700002 4287364729
0.0076028574 0.1309381 0.88700002 4287561323
0.0092923809 0.1309381 0.88700002 4287692408
0.010944762 0.13049524 0.88400006 4287561349
0.012628572 0.13049524 0.88400006 4287430269
0.014360953 0.1309381 0.88700002 4287430261
0.016050477 0.1309381 0.88700002 4287495800
0.017680001 0.13049524 0.88400006 4287561339
0.019363809 0.13049524 0.88400006 4287692419
0.021000002 0.1302 0.88200003 4287561356
0.022680001 0.1302 0.88200003 4287495808
0.24071716 0.21567145 1.4610001 4278784265
0.24350001 0.21567145 1.4610001 4278718729
0.24628288 0.21567145 1.4610001 4278784521
0.24804287 0.21478572 1.455 4278850311
0.25081429 0.21478572 1.455 4278784518
0.25358573 0.21478572 1.455 4278783237
0.25530002 0.21390001 1.4490001 4278588164
0.25806001 0.21390001 1.4490001 4278457860
0.25974002 0.21301429 1.4430001 4278588420
0.26248857 0.21301429 1.4430001 4278784262
0.26523715 0.21301429 1.4430001 4278718729
0.26798573 0.21301429 1.4430001 4278718731
0.27073431 0.21301429 1.4430001 4278718734
0.27462 0.21390001 1.4490001 4278653198
0.27738002 0.21390001 1.4490001 4278784270
0.28014004 0.21390001 1.4490001 4278850060
0.28290001 0.21390001 1.4490001 4278784523
0.28566003 0.21390001 1.4490001 4278718985
0.28842002 0.21390001 1.4490001 4278653192
0.2899743 0.21301429 1.4430001 4278522126
0.29272285 0.21301429 1.4430001 4278980885
0.29424286 0.21212856 1.437 4279375394
-0.49219051 0.16268191 1.0880001 4291611593
-0.49146953 0.16313049 1.0910001 4291743437
-0.48939145 0.16313049 1.0910001 4291415762
-0.48597336 0.16268191 1.0880001 4291086793
-0.48390099 0.16268191 1.0880001 4290756801
-0.49985433 0.19094191 1.2770001 4289047197
-0.49936953 0.19168954 1.2820001 4288651679
-0.49692765 0.19168954 1.2820001 4288388257
-0.49641433 0.19243714 1.2870001 4288191897
-0.49741715 0.19378285 1.296 4286881425
-0.49946383 0.19752097 1.3210001 4284639616
-0.49506673 0.19677335 1.3160001 4285629583
-0.49443144 0.19752097 1.3210001 4286613130
-0.49191529 0.19752097 1.3210001 4285560966
-0.48939905 0.19752097 1.3210001 4284512641
-0.48872575 0.19826859 1.3260001 4285823867
-0.31499335 0.19094191 1.2770001 4282729790
-0.31378478 0.19168954 1.2820001 4282861631
-0.31012857 0.19094191 1.2770001 4282730561
-0.30769622 0.19094191 1.2770001 4282664765
-0.3040686 0.19019429 1.2720001 4282533690
-0.30283144 0.19094191 1.2770001 4282467132
-0.30039907 0.19094191 1.2770001 4282335293
-0.29913336 0.19168954 1.2820001 4282269493
-0.29669142 0.19168954 1.2820001 4282203948
-0.26045716 0.19019429 1.2720001 4285623130
-0.26107717 0.19243714 1.2870001 4285686105
-0.25942951 0.19303523 1.291 4285356120
-0.25697047 0.19303523 1.291 4285094743
-0.25451142 0.19303523 1.291 4284964695
-0.25029525 0.19168954 1.2820001 4284834396
-0.24785334 0.19168954 1.2820001 4284376417
-0.24445428 0.19094191 1.2770001 4283918429
-0.24296953 0.19168954 1.2820001 4283657049
-0.24052763 0.19168954 1.2820001 4283386959
-0.23808572 0.19168954 1.2820001 4282199366
-0.23564382 0.19168954 1.2820001 4281089097
-0.23411144 0.19243714 1.2870001 4282075981
-0.23166001 0.19243714 1.2870001 4283059792
-0.22920857 0.19243714 1.2870001 4282995027
-0.22675715 0.19243714 1.2870001 4282995026
-0.2234343 0.19168954 1.2820001 4282470994
-0.22099239 0.19168954 1.2820001 4281949016
-0.21855049 0.19168954 1.2820001 4282079070
-0.21695143 0.19243714 1.2870001 4282280294
-0.21516667 0.19303523 1.291 4282329453
-0.21204859 0.19243714 1.2870001 4282399579
-0.21024857 0.19303523 1.291 4282993992
-0.20778953 0.19303523 1.291 4283659323
-0.20692097 0.19453049 1.3010001 4284062767
-0.20444287 0.19453049 1.3010001 4284525123
-0.20274097 0.19527811 1.3060001 4285118808
-0.19948667 0.19453049 1.3010001 4285712981
-0.19776574 0.19527811 1.3060001 4286307411
-0.19527811 0.19527811 1.3060001 4286901600
-0.19279049 0.19527811 1.3060001 4287037038
-0.19030288 0.19527811 1.3060001 4287168087
-0.18709621 0.19453049 1.3010001 4287102528
-0.18532762 0.19527811 1.3060001 4287036980
-0.18214002 0.19453049 1.3010001 4286840361
-0.17966191 0.19453049 1.3010001 4286643513
-0.17718382 0.19453049 1.3010001 4286512201
-0.17537715 0.19527811 1.3060001 4286446936
-0.17288953 0.19527811 1.3060001 4286578280
-0.029700002 0.13322572 0.89100003 4287299164
-0.028097145 0.13367428 0.89400005 4287495775
-0.026246669 0.13292667 0.88900006 4287299171
-0.024553334 0.13292667 0.88900006 4287102568
-0.022860002 0.13292667 0.88900006 4287037038
-0.021119049 0.13262762 0.88700002 4286971498
-0.019429525 0.13262762 0.88700002 4287037031
-0.017680001 0.13217905 0.88400006 4287102567
-0.015996192 0.13217905 0.88400006 4286971495
-0.014312382 0.13217905 0.88400006 4286905964
-0.012628572 0.13217905 0.88400006 4286905969
-0.01092 0.13188 0.88200003 4286905973
-0.0092400005 0.13188 0.88200003 4286840441
-0.0076800003 0.13397333 0.89600003 4286774893
-0.0059733335 0.13397333 0.89600003 4286774881
-0.0042666667 0.13397333 0.89600003 4286840418
-0.0025400002 0.13292667 0.88900006 4286774884
-0.00084666669 0.13292667 0.88900006 4286774876
0.00084666669 0.13292667 0.88900006 4286840404
0.0025342857 0.13262762 0.88700002 4286971496
0.004209524 0.13217905 0.88400006 4287037051
0.0058933338 0.13217905 0.88400006 4287168109
0.0075771431 0.13217905 0.88400006 4287168096
0.0092609534 0.13217905 0.88400006 4287233646
0.010944762 0.13217905 0.88400006 4287233660
0.012628572 0.13217905 0.88400006 4287233654
0.014312382 0.13217905 0.88400006 4287102576
0.015996192 0.13217905 0.88400006 4287037043
0.017680001 0.13217905 0.88400006 4286971510
0.019320002 0.13188 0.88200003 4286971513
0.021000002 0.13188 0.88200003 4286971516
0.022680001 0.13188 0.88200003 4287037049
0.24350001 0.2184543 1.4610001 4278850053
0.24628288 0.2184543 1.4610001 4278850054
0.24804287 0.21755715 1.455 4278850054
0.25081429 0.21755715 1.455 4278784773
0.25358573 0.21755715 1.455 4278783236
0.25530002 0.21666001 1.4490001 4278588674
0.25699142 0.21576287 1.4430001 4278391811
0.25866002 0.21486571 1.437 4278522884
0.26248857 0.21576287 1.4430001 4278653446
0.26523715 0.21576287 1.4430001 4278587657
0.26798573 0.21576287 1.4430001 4278522377
0.27186003 0.21666001 1.4490001 4278457352
0.27462 0.21666001 1.4490001 4278391305
0.27738002 0.21666001 1.4490001 4278586889
0.28014004 0.21666001 1.4490001 4278783754
0.28290001 0.21666001 1.4490001 4278784266
0.28566003 0.21666001 1.4490001 4278784011
0.28842002 0.21666001 1.4490001 4278651915
-0.49886572 0.19488858 1.2870001 4288320677
-0.49795711 0.19549428 1.291 4287533204
-0.49933621 0.19700859 1.3010001 4286348932
-0.49685815 0.19700859 1.3010001 4285157484
-0.49757335 0.19928001 1.3160001 4283977838
-0.49506673 0.19928001 1.3160001 4285428616
-0.49443144 0.20003715 1.3210001 4286875782
-0.49191529 0.20003715 1.3210001 4286744709
-0.48939905 0.20003715 1.3210001 4286679424
-0.31376001 0.19261716 1.2720001 4282862398
-0.31133717 0.19261716 1.2720001 4282861891
-0.3089143 0.19261716 1.2720001 4282861640
-0.30649143 0.19261716 1.2720001 4282861635
-0.30191714 0.19125429 1.263 4282665023
-0.30069715 0.19201143 1.268 4282532928
-0.29828191 0.19201143 1.268 4282269761
-0.29680002 0.19261716 1.2720001 4282071859
-0.29437715 0.19261716 1.2720001 4281940773
-0.26288477 0.1891343 1.2490001 4286550152
-0.25967142 0.18852857 1.245 4286813324
-0.25812668 0.1891343 1.2490001 4287011216
-0.25779527 0.19064859 1.2590001 4287078292
-0.25539717 0.19064859 1.2590001 4287145612
-0.25862572 0.19488858 1.2870001 4287014532
-0.25697047 0.19549428 1.291 4286883707
-0.25451142 0.19549428 1.291 4286815858
-0.25029525 0.19413143 1.2820001 4286748026
-0.24592 0.19261716 1.2720001 4286550147
-0.24273142 0.19201143 1.268 4286418048
-0.24107431 0.19261716 1.2720001 4286288509
-0.23865144 0.19261716 1.2720001 4286159211
-0.23808572 0.19413143 1.2820001 4285631834
-0.23564382 0.19413143 1.2820001 4285104731
-0.23229238 0.19337429 1.2770001 4284972381
-0.22986001 0.19337429 1.2770001 4284840280
-0.2283181 0.19413143 1.2820001 4284378707
-0.2258762 0.19413143 1.2820001 4283982929
-0.22256286 0.19337429 1.2770001 4283719504
-0.22013049 0.19337429 1.2770001 4283521624
-0.2176981 0.19337429 1.2770001 4283786592
-0.21442287 0.19261716 1.2720001 4284051821
-0.212 0.19261716 1.2720001 4284388219
-0.20957716 0.19261716 1.2720001 4284790111
-0.20715429 0.19261716 1.2720001 4285123396
-0.20778953 0.19549428 1.291 4285456939
-0.20692097 0.19700859 1.3010001 4285656082
-0.20444287 0.19700859 1.3010001 4285855544
-0.20274097 0.19776574 1.3060001 4286184030
-0.19948667 0.19700859 1.3010001 4286512730
-0.19776574 0.19776574 1.3060001 4286643798
-0.19527811 0.19776574 1.3060001 4286840415
-0.18709621 0.19700859 1.3010001 4286905958
-0.18532762 0.19776574 1.3060001 4286971479
-0.18214002 0.19700859 1.3010001 4286840393
-0.17966191 0.19700859 1.3010001 4286774868
-0.025449526 0.13053145 0.86200005 4287102563
-0.024498096 0.13431714 0.88700002 4286971502
-0.022808572 0.13431714 0.88700002 4287037049
-0.02104762 0.13386287 0.88400006 4287168114
-0.019363809 0.13386287 0.88400006 4287102572
-0.017680001 0.13386287 0.88400006 4287102568
-0.01596 0.13356 0.88200003 4287102565
-0.014280001 0.13356 0.88200003 4287037037
-0.0126 0.13356 0.88200003 4286971509
-0.010895238 0.13325715 0.88000005 4286905972
-0.0091666672 0.13250001 0.87500006 4286840435
-0.0075000003 0.13250001 0.87500006 4286840422
-0.0057800002 0.13128859 0.86700004 4286905945
-0.0041190479 0.13098572 0.86500007 4286971482
-0.0024714288 0.13098572 0.86500007 4286905947
-0.0008447619 0.13431714 0.88700002 4286905929
0.0008447619 0.13431714 0.88700002 4286971448
0.0025342857 0.13431714 0.88700002 4287102292
0.004209524 0.13386287 0.88400006 4287102576
0.0058933338 0.13386287 0.88400006 4287102562
0.0075771431 0.13386287 0.88400006 4287102549
0.0092609534 0.13386287 0.88400006 4287102308
0.01092 0.13356 0.88200003 4287168116
0.012628572 0.13386287 0.88400006 4287233648
0.014312382 0.13386287 0.88400006 4287102572
0.015996192 0.13386287 0.88400006 4287037038
0.017680001 0.13386287 0.88400006 4287037041
0.019276192 0.13325715 0.88000005 4286971503
0.020952383 0.13325715 0.88000005 4286971501
0.022628574 0.13325715 0.88000005 4287037041
0.24350001 0.22123715 1.4610001 4278784770
0.24628288 0.22123715 1.4610001 4278784516
0.24906573 0.22123715 1.4610001 4278849796
0.25184858 0.22123715 1.4610001 4278783749
0.25358573 0.22032857 1.455 4278717955
0.25530002 0.21942002 1.4490001 4278521857
0.25806001 0.21942002 1.4490001 4278391298
0.25866002 0.21760285 1.437 4278522372
0.26139715 0.21760285 1.437 4278585863
0.26413429 0.21760285 1.437 4278586122
0.26798573 0.21851143 1.4430001 4278586630
0.27186003 0.21942002 1.4490001 4278587395
0.27462 0.21942002 1.4490001 4278653956
0.27738002 0.21942002 1.4490001 4278652165
0.28014004 0.21942002 1.4490001 4278652423
0.28290001 0.21942002 1.4490001 4278586890
0.28566003 0.21942002 1.4490001 4278587148
0.28842002 0.21942002 1.4490001 4278651663
-0.49936953 0.19657333 1.2820001 4289637288
-0.49692765 0.19657333 1.2820001 4288260270
-0.49448574 0.19657333 1.2820001 4286941843
-0.49204379 0.19657333 1.2820001 4285816696
-0.49685815 0.19948667 1.3010001 4284768367
-0.49757335 0.20178668 1.3160001 4283326832
-0.49506673 0.20178668 1.3160001 4285227642
-0.49443144 0.20255335 1.3210001 4287202696
-0.49191529 0.20255335 1.3210001 4287999638
-0.31376001 0.19504 1.2720001 4282928450
-0.31133717 0.19504 1.2720001 4282928454
-0.30235714 0.1909 1.245 4282993994
-0.29998574 0.1909 1.245 4283123530
-0.29857048 0.19151333 1.2490001 4282862154
-0.29619142 0.19151333 1.2490001 4282597189
-0.29381239 0.19151333 1.2490001 4282204225
-0.29143333 0.19151333 1.2490001 4281875261
-0.29437715 0.19504 1.2720001 4281677368
-0.26956573 0.18952 1.2360001 4288188815
-0.26721144 0.18952 1.2360001 4288061338
-0.26485714 0.18952 1.2360001 4287927442
-0.26335236 0.19013333 1.24 4287661963
-0.26204285 0.1909 1.245 4287470227
-0.25862858 0.19013333 1.24 4287996315
-0.25626668 0.19013333 1.24 4288520865
-0.25492856 0.1909 1.245 4288586920
-0.25255713 0.1909 1.245 4288653474
-0.25018573 0.1909 1.245 4288654236
-0.25697047 0.19795333 1.291 4288654232
-0.25451142 0.19795333 1.291 4288654229
-0.25029525 0.19657333 1.2820001 4288719258
-0.24592 0.19504 1.2720001 4288784543
-0.24273142 0.19442666 1.268 4288916380
-0.24107431 0.19504 1.2720001 4288917402
-0.23865144 0.19504 1.2720001 4288982927
-0.23564382 0.19657333 1.2820001 4289174384
-0.23229238 0.19580668 1.2770001 4287858268
-0.22986001 0.19580668 1.2770001 4286612304
-0.2283181 0.19657333 1.2820001 4285825349
-0.22499524 0.19580668 1.2770001 4285042749
-0.22256286 0.19580668 1.2770001 4285046837
-0.22013049 0.19580668 1.2770001 4285117765
-0.2176981 0.19580668 1.2770001 4285516373
-0.21442287 0.19504 1.2720001 4285916267
-0.212 0.19504 1.2720001 4286512770
-0.20957716 0.19504 1.2720001 4287168108
-0.20715429 0.19504 1.2720001 4287168086
-0.028833335 0.13263334 0.86500007 4286774355
-0.027091429 0.13217334 0.86200005 4286905951
-0.025449526 0.13217334 0.86200005 4286905964
-0.023641907 0.13125335 0.85600007 4286905967
-0.022731431 0.13554667 0.88400006 4287102579
-0.021000002 0.13524 0.88200003 4287364718
-0.019320002 0.13524 0.88200003 4287233642
-0.01764 0.13524 0.88200003 4287168104
-0.015923811 0.13493334 0.88000005 4287168102
-0.01424762 0.13493334 0.88000005 4287233643
-0.012571429 0.13493334 0.88000005 4287037041
-0.010870476 0.13462667 0.87800002 4286905971
-0.0092190476 0.13493334 0.88000005 4286905973
-0.0074142865 0.13263334 0.86500007 4286971497
-0.0057800002 0.13294001 0.86700004 4287037022
-0.0041190479 0.13263334 0.86500007 4287168096
-0.0024714288 0.13263334 0.86500007 4287102563
-0.00082761905 0.13324666 0.86900002 4287037017
0.00082952384 0.13355334 0.87100005 4287102542
0.0024885715 0.13355334 0.87100005 4287233633
0.0041571432 0.13386001 0.87300003 4287102580
0.0058666668 0.13493334 0.88000005 4287037033
0.0075428574 0.13493334 0.88000005 4286971486
0.0092190476 0.13493334 0.88000005 4286971493
0.010895238 0.13493334 0.88000005 4287102573
0.012628572 0.13554667 0.88400006 4287233640
0.014312382 0.13554667 0.88400006 4287168099
0.015996192 0.13554667 0.88400006 4287102572
0.017680001 0.13554667 0.88400006 4287037046
0.019363809 0.13554667 0.88400006 4287037043
0.020952383 0.13493334 0.88000005 4287037040
0.022628574 0.13493334 0.88000005 4287037042
0.24906573 0.22402 1.4610001 4278849795
0.25184858 0.22402 1.4610001 4278718212
0.25358573 0.22310001 1.455 4278652419
0.25530002 0.22218001 1.4490001 4278521346
0.25806001 0.22218001 1.4490001 4278456580
0.25866002 0.22034001 1.437 4278521862
0.26139715 0.22034001 1.437 4278585865
0.26413429 0.22034001 1.437 4278586381
0.26798573 0.22126001 1.4430001 4278652168
0.27186003 0.22218001 1.4490001 4278783235
0.27462 0.22218001 1.4490001 4278979844
0.27738002 0.22218001 1.4490001 4278717701
0.28014004 0.22218001 1.4490001 4278521093
0.28290001 0.22218001 1.4490001 4278455813
-0.49936953 0.19901524 1.2820001 4289837748
-0.49692765 0.19901524 1.2820001 4288457912
-0.49448574 0.19901524 1.2820001 4287071378
-0.49204379 0.19901524 1.2820001 4285881453
-0.36342576 0.19047716 1.2270001 4283191368
-0.3610886 0.19047716 1.2270001 4283191370
-0.30032286 0.19047716 1.2270001 4282337866
-0.30017143 0.1918743 1.2360001 4282271821
-0.29878095 0.19249523 1.24 4282206033
-0.29641902 0.19249523 1.24 4282138965
-0.29405716 0.19249523 1.24 4282071883
-0.29169524 0.19249523 1.24 4282466114
-0.28933331 0.19249523 1.24 4282861895
-0.28697142 0.19249523 1.24 4283518540
-0.26760289 0.19047716 1.2270001 4288195496
-0.26526573 0.19047716 1.2270001 4288126640
-0.26292858 0.19047716 1.2270001 4288059552
-0.26250288 0.1918743 1.2360001 4287995537
-0.26099047 0.19249523 1.24 4287997342
-0.25779429 0.1918743 1.2360001 4288324267
-0.25626668 0.19249523 1.24 4288651699
-0.25390476 0.19249523 1.24 4288915132
-0.25154284 0.19249523 1.24 4289244088
-0.24918096 0.19249523 1.24 4289047476
-0.22499524 0.19823906 1.2770001 4285520425
-0.22256286 0.19823906 1.2770001 4285524251
-0.22013049 0.19823906 1.2770001 4285528370
-0.2176981 0.19823906 1.2770001 4285791050
-0.21442287 0.19746287 1.2720001 4285988458
-0.212 0.19746287 1.2720001 4286250634
-0.20891809 0.19684191 1.268 4286512761
-0.20650285 0.19684191 1.268 4286447208
-0.028833335 0.13428096 0.86500007 4286840420
-0.026965715 0.13319428 0.85800004 4286905964
-0.025272382 0.13288382 0.85600007 4286774901
-0.023586666 0.13257334 0.85400003 4286709361
-0.02196 0.13257334 0.85400003 4286905965
-0.020952383 0.13660952 0.88000005 4287102571
-0.019276192 0.13660952 0.88000005 4287036777
-0.017600002 0.13660952 0.88000005 4286905704
-0.01588762 0.13629904 0.87800002 4287037032
-0.01424762 0.13660952 0.88000005 4287102570
-0.012571429 0.13660952 0.88000005 4286971501
-0.010870476 0.13629904 0.87800002 4286840434
-0.0090304762 0.13381524 0.86200005 4286905975
-0.0073885717 0.13381524 0.86200005 4286905965
-0.0057466668 0.13381524 0.86200005 4287037027
-0.0041047623 0.13381524 0.86200005 4287233639
-0.0024571428 0.13350476 0.86000001 4287102572
-0.00081904762 0.13350476 0.86000001 4287037032
0.00080761907 0.13164192 0.84800005 4287102565
0.0024885715 0.13521239 0.87100005 4287168111
0.0041476195 0.13521239 0.87100005 4287102585
0.005853333 0.13629904 0.87800002 4287037040
0.0075257146 0.13629904 0.87800002 4287037031
0.0091666672 0.13583335 0.87500006 4287102566
0.010833334 0.13583335 0.87500006 4287299174
0.012500001 0.13583335 0.87500006 4287495776
0.014312382 0.13723049 0.88400006 4287299162
0.015996192 0.13723049 0.88400006 4287168107
0.017680001 0.13723049 0.88400006 4287037052
0.019363809 0.13723049 0.88400006 4286905719
-0.39718384 0.19218573 1.223 4282929738
-0.39356288 0.19155715 1.2190001 4283125563
-0.38963622 0.19077145 1.2140001 4283387457
-0.38732383 0.19077145 1.2140001 4283321927
-0.38374287 0.19014287 1.21 4283321408
-0.38143811 0.19014287 1.21 4283320889
-0.38038671 0.19077145 1.2140001 4283321918
-0.37558287 0.18951431 1.2060001 4283321668
-0.37328574 0.18951431 1.2060001 4283321672
-0.37098858 0.18951431 1.2060001 4283518285
-0.36991429 0.19014287 1.21 4283780687
-0.37155905 0.19218573 1.223 4283518546
-0.36922953 0.19218573 1.223 4283321672
-0.36690003 0.19218573 1.223 4283256127
-0.36188763 0.19077145 1.2140001 4283257156
-0.36105624 0.19155715 1.2190001 4283257162
-0.35991144 0.19218573 1.223 4283257163
-0.35641241 0.19155715 1.2190001 4283322957
-0.35409051 0.19155715 1.2190001 4283388236
-0.35032576 0.19077145 1.2140001 4283322187
-0.34801337 0.19077145 1.2140001 4283256648
-0.30032286 0.19281431 1.2270001 4281747016
-0.29920003 0.19360001 1.2320001 4281480262
-0.29781714 0.19422857 1.2360001 4281290307
-0.29546288 0.19422857 1.2360001 4281409856
-0.29310858 0.19422857 1.2360001 4281544529
-0.29075432 0.19422857 1.2360001 4282662499
-0.28839999 0.19422857 1.2360001 4283850082
-0.28604573 0.19422857 1.2360001 4285365346
-0.26760289 0.19281431 1.2270001 4288191143
-0.26526573 0.19281431 1.2270001 4288192176
-0.264 0.19360001 1.2320001 4288193194
-0.26250288 0.19422857 1.2360001 4288325283
-0.26014858 0.19422857 1.2360001 4288521641
-0.25779429 0.19422857 1.2360001 4288652207
-0.25626668 0.19485715 1.24 4288850359
-0.25390476 0.19485715 1.24 4289312191
-0.25154284 0.19485715 1.24 4289834169
-0.24918096 0.19485715 1.24 4289506227
-0.22013049 0.20067145 1.2770001 4285987651
-0.2176981 0.20067145 1.2770001 4286053452
-0.21442287 0.19988571 1.2720001 4286119260
-0.212 0.19988571 1.2720001 4285988461
-0.20891809 0.19925714 1.268 4285857384
-0.20650285 0.19925714 1.268 4285660771
-0.030375239 0.13545716 0.86200005 4287037024
-0.028733335 0.13545716 0.86200005 4286971492
-0.02690286 0.13451429 0.85600007 4286905965
-0.025272382 0.13451429 0.85600007 4286709367
-0.023586666 0.13420001 0.85400003 4286512754
-0.02196 0.13420001 0.85400003 4286709358
-0.020380953 0.13451429 0.85600007 4286905958
-0.018750478 0.13451429 0.85600007 4286774110
-0.017120002 0.13451429 0.85600007 4286709091
-0.015797142 0.13718571 0.87300003 4286840425
-0.014134286 0.13718571 0.87300003 4287037037
-0.012414285 0.13655715 0.86900002 4286905970
-0.010647619 0.13514286 0.86000001 4286840441
-0.0090095233 0.13514286 0.86000001 4286840447
-0.0073885717 0.13545716 0.86200005 4286905974
-0.0057200002 0.13482858 0.85800004 4287102573
-0.0040952382 0.13514286 0.86000001 4287299184
-0.0024514287 0.13482858 0.85800004 4287168115
-0.00080761907 0.13325715 0.84800005 4287037037
0.00080761907 0.13325715 0.84800005 4287102568
0.0024828573 0.13655715 0.86900002 4287168110
0.0041380953 0.13655715 0.86900002 4287102581
0.0058066668 0.13687144 0.87100005 4287102573
0.0074657151 0.13687144 0.87100005 4287168102
0.0091038095 0.13655715 0.86900002 4287233635
0.010672381 0.13545716 0.86200005 4287495777
0.012314286 0.13545716 0.86200005 4287757920
0.013956192 0.13545716 0.86200005 4287495776
0.015598095 0.13545716 0.86200005 4287233646
0.017240001 0.13545716 0.86200005 4286971517
-0.41463432 0.19181143 1.2060001 4284573814
-0.41233718 0.19181143 1.2060001 4284703839
-0.40868002 0.19117524 1.202 4284899668
-0.40639049 0.19117524 1.202 4284176201
-0.40410095 0.19117524 1.202 4283518546
-0.39718384 0.19451524 1.223 4283060049
-0.39356288 0.19387905 1.2190001 4283060049
-0.39124098 0.19387905 1.2190001 4283060047
-0.38732383 0.19308382 1.2140001 4283125070
-0.3824743 0.19181143 1.2060001 4283255371
-0.38017717 0.19181143 1.2060001 4283321416
-0.37788001 0.19181143 1.2060001 4283321928
-0.37558287 0.19181143 1.2060001 4283321672
-0.37328574 0.19181143 1.2060001 4283321419
-0.37098858 0.19181143 1.2060001 4283518286
-0.36869147 0.19181143 1.2060001 4283715150
-0.36760953 0.19244762 1.21 4283518799
-0.36802194 0.19387905 1.2190001 4283323202
-0.36300001 0.19244762 1.21 4283322933
-0.36069524 0.19244762 1.21 4283322689
-0.36105624 0.19387905 1.2190001 4283322701
-0.35991144 0.19451524 1.223 4283322701
-0.35495049 0.19308382 1.2140001 4283388494
-0.3526381 0.19308382 1.2140001 4283454028
-0.35032576 0.19308382 1.2140001 4283454026
-0.34944668 0.19387905 1.2190001 4283454020
-0.34712479 0.19387905 1.2190001 4283453502
-0.29934382 0.19451524 1.223 4284695367
-0.2970143 0.19451524 1.223 4284697664
-0.29781714 0.19658287 1.2360001 4284765750
-0.2945067 0.19594668 1.2320001 4284965420
-0.29310858 0.19658287 1.2360001 4285165144
-0.29075432 0.19658287 1.2360001 4285694852
-0.28839999 0.19658287 1.2360001 4286290302
-0.28604573 0.19658287 1.2360001 4286481272
-0.27192003 0.19658287 1.2360001 4288518556
-0.26869336 0.19594668 1.2320001 4288453286
-0.26634669 0.19594668 1.2320001 4288455345
-0.264 0.19594668 1.2320001 4288455603
-0.26250288 0.19658287 1.2360001 4288521398
-0.26014858 0.19658287 1.2360001 4288587444
-0.25779429 0.19658287 1.2360001 4288654515
-0.25544 0.19658287 1.2360001 4288787130
-0.25308573 0.19658287 1.2360001 4288983234
-0.25073144 0.19658287 1.2360001 4289244858
-0.24918096 0.19721904 1.24 4288851378
-0.030375239 0.13709906 0.86200005 4286905946
-0.028733335 0.13709906 0.86200005 4286905956
-0.026965715 0.13646287 0.85800004 4286840431
-0.025272382 0.13614477 0.85600007 4286774906
-0.023641907 0.13614477 0.85600007 4286709364
-0.02196 0.13582668 0.85400003 4286774895
-0.020380953 0.13614477 0.85600007 4286905953
-0.018750478 0.13614477 0.85600007 4286840403
-0.01708 0.13582668 0.85400003 4286840414
-0.015489525 0.13614477 0.85600007 4286905962
-0.013859048 0.13614477 0.85600007 4286971505
-0.012257144 0.13646287 0.85800004 4286840440
-0.010598096 0.13614477 0.85600007 4286774912
-0.0089676194 0.13614477 0.85600007 4286840456
-0.0073542856 0.13646287 0.85800004 4286971519
-0.0056799999 0.13550858 0.85200006 4286971511
-0.0040571429 0.13550858 0.85200006 4286971513
-0.0024228573 0.13487239 0.84800005 4286971515
-0.00080761907 0.13487239 0.84800005 4287037043
0.00080476195 0.13439524 0.84500003 4287037035
0.0024571428 0.13678095 0.86000001 4287037038
0.0041047623 0.13709906 0.86200005 4286971505
0.005766667 0.13757621 0.86500007 4286971499
0.0074142865 0.13757621 0.86500007 4287037030
0.0090619046 0.13757621 0.86500007 4287168097
0.010672381 0.13709906 0.86200005 4287299164
0.012314286 0.13709906 0.86200005 4287495777
0.013956192 0.13709906 0.86200005 4287364710
0.015598095 0.13709906 0.86200005 4287233650
0.017240001 0.13709906 0.86200005 4287037055
-0.41331905 0.19137238 1.189 4281416562
-0.41105428 0.19137238 1.189 4282075249
-0.40878952 0.19137238 1.189 4282729571
-0.40652478 0.19137238 1.189 4283056469
-0.40698001 0.19266 1.197 4283385938
-0.40469998 0.19266 1.197 4283584334
-0.40242001 0.19266 1.197 4283780947
-0.39951333 0.19684477 1.223 4283257171
-0.39588481 0.19620097 1.2190001 4283191637
-0.39356288 0.19620097 1.2190001 4282929494
-0.38963622 0.1953962 1.2140001 4282732114
-0.38477147 0.19410858 1.2060001 4282993742
-0.3824743 0.19410858 1.2060001 4283256396
-0.37891617 0.19346476 1.202 4283322699
-0.37788001 0.19410858 1.2060001 4283387979
-0.37433717 0.19346476 1.202 4283387979
-0.3720476 0.19346476 1.202 4283387982
-0.3697581 0.19346476 1.202 4283519056
-0.36746857 0.19346476 1.202 4283650127
-0.36639431 0.19410858 1.2060001 4283519310
-0.36409718 0.19410858 1.2060001 4283388742
-0.36180001 0.19410858 1.2060001 4283388734
-0.35950288 0.19410858 1.2060001 4283388230
-0.35839048 0.19475238 1.21 4283388238
-0.35726288 0.1953962 1.2140001 4283388239
-0.35378096 0.19475238 1.21 4283454033
-0.35147619 0.19475238 1.21 4283585102
-0.34917143 0.19475238 1.21 4283650891
-0.34944668 0.19620097 1.2190001 4283716167
-0.34712479 0.19620097 1.2190001 4283650372
-0.29934382 0.19684477 1.223 4287664252
-0.2970143 0.19684477 1.223 4287993218
-0.2945067 0.19829336 1.2320001 4288523123
-0.29310858 0.19893715 1.2360001 4288785290
-0.29075432 0.19893715 1.2360001 4288785570
-0.28839999 0.19893715 1.2360001 4288784534
-0.27104002 0.19829336 1.2320001 4288653477
-0.26869336 0.19829336 1.2320001 4288718762
-0.26526573 0.19748859 1.2270001 4288718512
-0.264 0.19829336 1.2320001 4288717742
-0.26165336 0.19829336 1.2320001 4288717228
-0.26014858 0.19893715 1.2360001 4288719789
-0.25696 0.19829336 1.2320001 4288721326
-0.25461334 0.19829336 1.2320001 4288722353
-0.25226671 0.19829336 1.2320001 4288650933
-0.25073144 0.19893715 1.2360001 4288655009
-0.030375239 0.13874096 0.86200005 4286840419
-0.028733335 0.13874096 0.86200005 4286840171
-0.026965715 0.13809715 0.85800004 4286840430
-0.025272382 0.13777526 0.85600007 4286905970
-0.023641907 0.13777526 0.85600007 4286971505
-0.021908572 0.13713144 0.85200006 4286905968
-0.020285714 0.13713144 0.85200006 4286905961
-0.018662857 0.13713144 0.85200006 4286905953
-0.017040001 0.13713144 0.85200006 4286971496
-0.015380952 0.13680953 0.85000002 4286971503
-0.013761905 0.13680953 0.85000002 4286971507
-0.012142857 0.13680953 0.85000002 4286840440
-0.010499048 0.13648763 0.84800005 4286709365
-0.0089257145 0.13713144 0.85200006 4286840434
-0.0073028579 0.13713144 0.85200006 4287037043
-0.0056533334 0.13648763 0.84800005 4286840436
-0.0040380955 0.13648763 0.84800005 4286643831
-0.0024142857 0.13600476 0.84500003 4286840442
-0.00080476195 0.13600476 0.84500003 4287037043
0.00080476195 0.13600476 0.84500003 4286971501
0.0024142857 0.13600476 0.84500003 4286905970
0.0040142857 0.13568287 0.84300005 4286840440
0.005766667 0.13922381 0.86500007 4286840433
0.0074142865 0.13922381 0.86500007 4286971498
0.0090304762 0.13874096 0.86200005 4287102565
0.010672381 0.13874096 0.86200005 4287168096
0.012314286 0.13874096 0.86200005 4287233635
0.013956192 0.13874096 0.86200005 4287233639
0.015598095 0.13874096 0.86200005 4287299184
-0.41138953 0.19168288 1.177 4283122010
-0.41192859 0.19298573 1.1850001 4282601303
-0.40967146 0.19298573 1.1850001 4282928468
-0.40741432 0.19298573 1.1850001 4283321424
-0.40515715 0.19298573 1.1850001 4283387212
-0.40290001 0.19298573 1.1850001 4283518544
-0.40064287 0.19298573 1.1850001 4283584340
-0.39838573 0.19298573 1.1850001 4283650133
-0.39612859 0.19298573 1.1850001 4283584599
-0.39820668 0.19852288 1.2190001 4283256917
-0.39588481 0.19852288 1.2190001 4283257432
-0.39356288 0.19852288 1.2190001 4283125852
-0.3870686 0.19640572 1.2060001 4282994261
-0.38349524 0.19575429 1.202 4283125326
-0.38120574 0.19575429 1.202 4283257166
-0.37891617 0.19575429 1.202 4283322958
-0.37662667 0.19575429 1.202 4283388750
-0.37278 0.19494002 1.197 4283323215
-0.3705 0.19494002 1.197 4283323473
-0.36698955 0.19428858 1.1930001 4283585619
-0.36349428 0.19363715 1.189 4283847760
-0.36517906 0.19575429 1.202 4283520077
-0.36138001 0.19494002 1.197 4283257930
-0.35910001 0.19494002 1.197 4283323207
-0.35682002 0.19494002 1.197 4283322955
-0.35720575 0.19640572 1.2060001 4283191632
-0.35490859 0.19640572 1.2060001 4283126354
-0.35261145 0.19640572 1.2060001 4283257172
-0.35031429 0.19640572 1.2060001 4283453520
-0.34801716 0.19640572 1.2060001 4283519309
-0.34571999 0.19640572 1.2060001 4283650635
-0.27104002 0.20064001 1.2320001 4288389295
-0.26869336 0.20064001 1.2320001 4288650927
-0.26526573 0.19982573 1.2270001 4288786863
-0.264 0.20064001 1.2320001 4288918953
-0.26165336 0.20064001 1.2320001 4288329123
-0.2593067 0.20064001 1.2320001 4287739558
-0.25696 0.20064001 1.2320001 4287739818
-0.25461334 0.20064001 1.2320001 4287740073
-0.25226671 0.20064001 1.2320001 4287679656
-0.025272382 0.13940571 0.85600007 4286774891
-0.023641907 0.13940571 0.85600007 4286774894
-0.021908572 0.13875429 0.85200006 4286840434
-0.020285714 0.13875429 0.85200006 4286905969
-0.018619049 0.13842857 0.85000002 4286971504
-0.017040001 0.13875429 0.85200006 4287037042
-0.015344763 0.13810286 0.84800005 4287037044
-0.013680953 0.13761429 0.84500003 4287037046
-0.012071429 0.13761429 0.84500003 4286971513
-0.010437143 0.13728859 0.84300005 4286905963
-0.0088838106 0.13810286 0.84800005 4286971485
-0.0072428575 0.13761429 0.84500003 4287102567
-0.0056333332 0.13761429 0.84500003 4286971505
-0.0040238099 0.13761429 0.84500003 4286840437
-0.0024142857 0.13761429 0.84500003 4286971513
-0.00080476195 0.13761429 0.84500003 4287168116
0.00080476195 0.13761429 0.84500003 4287037039
0.0024085718 0.13728859 0.84300005 4286971511
0.0040142857 0.13728859 0.84300005 4286774912
0.005766667 0.14087144 0.86500007 4286643831
0.0074142865 0.14087144 0.86500007 4286840430
0.0090304762 0.14038286 0.86200005 4287037033
0.010672381 0.14038286 0.86200005 4287102565
0.012285715 0.14005713 0.86000001 4287168102
0.013923809 0.14005713 0.86000001 4287168104
0.015598095 0.14038286 0.86200005 4287168111
-0.41587335 0.19392475 1.177 4284237149
-0.41363144 0.19392475 1.177 4283256154
-0.41138953 0.19392475 1.177 4283520344
-0.41053814 0.19458382 1.1810001 4283782230
-0.4082886 0.19458382 1.1810001 4283847508
-0.40603909 0.19458382 1.1810001 4283912784
-0.40378955 0.19458382 1.1810001 4283781708
-0.40154004 0.19458382 1.1810001 4283716169
-0.3992905 0.19458382 1.1810001 4283585095
-0.39704099 0.19458382 1.1810001 4283518797
-0.39479145 0.19458382 1.1810001 4283453523
-0.39657336 0.20002097 1.2140001 4283322193
-0.39426097 0.20002097 1.2140001 4283387731
-0.39194861 0.20002097 1.2140001 4283322197
-0.38578478 0.19804381 1.202 4283256657
-0.38189998 0.19722001 1.197 4283256653
-0.37962002 0.19722001 1.197 4283256913
-0.37733999 0.19722001 1.197 4283323478
-0.37380672 0.19656096 1.1930001 4283454292
-0.37028858 0.19590192 1.189 4283323475
-0.36802381 0.19590192 1.189 4283257686
-0.36452857 0.19524287 1.1850001 4283650649
-0.36104861 0.19458382 1.1810001 4284043860
-0.36001429 0.19524287 1.1850001 4283585359
-0.35896474 0.19590192 1.189 4283192141
-0.3567 0.19590192 1.189 4283258187
-0.35562763 0.19656096 1.1930001 4283323214
-0.35602096 0.19804381 1.202 4283060561
-0.35373142 0.19804381 1.202 4282863957
-0.35261145 0.19870287 1.2060001 4283060570
-0.34915239 0.19804381 1.202 4283322453
-0.34686285 0.19804381 1.202 4283453008
-0.34571999 0.19870287 1.2060001 4283650637
-0.26869336 0.20298669 1.2320001 4288588743
-0.26526573 0.20216288 1.2270001 4288855241
-0.264 0.20298669 1.2320001 4289115806
-0.26250288 0.20364572 1.2360001 4287934835
-0.26014858 0.20364572 1.2360001 4286756986
-0.25696 0.20298669 1.2320001 4286759041
-0.020285714 0.14037715 0.85200006 4286905964
-0.018619049 0.14004762 0.85000002 4287037038
-0.017040001 0.14037715 0.85200006 4287168113
-0.015254286 0.13889429 0.84300005 4287102581
-0.013648572 0.13889429 0.84300005 4287102582
-0.012042858 0.13889429 0.84300005 4287102583
-0.010338096 0.13757619 0.83500004 4287102571
-0.0087476196 0.13757619 0.83500004 4287168095
-0.0072085718 0.13856475 0.84100002 4287233643
-0.0056200004 0.13889429 0.84300005 4287102582
-0.0040142857 0.13889429 0.84300005 4287037047
-0.0024085718 0.13889429 0.84300005 4287168120
-0.00080285716 0.13889429 0.84300005 4287299190
0.00080285716 0.13889429 0.84300005 4287168115
0.0024085718 0.13889429 0.84300005 4287037047
0.0040142857 0.13889429 0.84300005 4286709371
0.0054733334 0.13526952 0.82100004 4286447220
0.0070714285 0.13592857 0.82500005 4286709357
0.0086428579 0.13592857 0.82500005 4286971499
0.010214286 0.13592857 0.82500005 4287037034
0.011842857 0.13658762 0.82900006 4287102570
0.013421906 0.13658762 0.82900006 4287102570
0.015000953 0.13658762 0.82900006 4287102574
0.016580001 0.13658762 0.82900006 4286840435
0.018071428 0.13592857 0.82500005 4286643826
0.019738097 0.13658762 0.82900006 4286840433
0.021317143 0.13658762 0.82900006 4287037045
0.022896193 0.13658762 0.82900006 4287102585
-0.41446003 0.19550002 1.1730001 4283779400
-0.41222575 0.19550002 1.1730001 4283520335
-0.40999144 0.19550002 1.1730001 4283585879
-0.40914762 0.19616666 1.177 4283585877
-0.40690571 0.19616666 1.177 4283585364
-0.4046638 0.19616666 1.177 4283585104
-0.40242192 0.19616666 1.177 4283519308
-0.40018001 0.19616666 1.177 4283519043
-0.3979381 0.19616666 1.177 4283453243
-0.39569619 0.19616666 1.177 4283387717
-0.39211717 0.19550002 1.1730001 4283387983
-0.38988289 0.19550002 1.1730001 4283387983
-0.39657336 0.20233335 1.2140001 4283453262
-0.37834764 0.19416668 1.1650001 4283583822
-0.37483716 0.1935 1.161 4283387470
-0.37519333 0.19483334 1.169 4283257165
-0.37807143 0.19750001 1.1850001 4283322444
-0.37835145 0.19883335 1.1930001 4283322453
-0.37481809 0.19816667 1.189 4283388510
-0.37380672 0.19883335 1.1930001 4283519835
-0.37028858 0.19816667 1.189 4283454552
-0.36678573 0.19750001 1.1850001 4283388507
-0.36452857 0.19750001 1.1850001 4283584863
-0.36104861 0.19683334 1.1810001 4283781464
-0.3587991 0.19683334 1.1810001 4283519570
-0.35775715 0.19750001 1.1850001 4283323217
-0.35550001 0.19750001 1.1850001 4283323472
-0.35324287 0.19750001 1.1850001 4283389009
-0.34861621 0.19616666 1.177 4283322451
-0.33725142 0.191 1.146 4283322457
-0.33506858 0.191 1.146 4283322464
-0.33288571 0.191 1.146 4283387994
-0.34686285 0.20033334 1.202 4283519316
-0.264 0.20533335 1.2320001 4289066900
-0.26250288 0.20600002 1.2360001 4287818308
-0.26014858 0.20600002 1.2360001 4286569806
-0.015254286 0.14050001 0.84300005 4287037046
-0.01361619 0.14016667 0.84100002 4287037046
-0.012014287 0.14016667 0.84100002 4287102582
-0.010338096 0.13916667 0.83500004 4287102572
-0.0087476196 0.13916667 0.83500004 4287168098
-0.0072085718 0.14016667 0.84100002 4287233647
-0.0056066667 0.14016667 0.84100002 4287233660
-0.0040142857 0.14050001 0.84300005 4287168122
-0.0024028572 0.14016667 0.84100002 4287233656
-0.00080095237 0.14016667 0.84100002 4287233656
0.00080095237 0.14016667 0.84100002 4287168120
0.0024028572 0.14016667 0.84100002 4287037047
0.0039095236 0.13683334 0.82100004 4286905974
0.0054733334 0.13683334 0.82100004 4286774897
0.0070714285 0.13750002 0.82500005 4286840429
0.0086428579 0.13750002 0.82500005 4286971502
0.010214286 0.13750002 0.82500005 4287037039
0.011842857 0.13816668 0.82900006 4287168110
0.013421906 0.13816668 0.82900006 4287102573
0.015000953 0.13816668 0.82900006 4287102318
0.01654 0.13783334 0.82700002 4286971504
0.01802762 0.13716668 0.82300001 4286774895
0.019690476 0.13783334 0.82700002 4286840431
0.021265715 0.13783334 0.82700002 4286971510
0.022730477 0.13716668 0.82300001 4286971517
0.024298096 0.13716668 0.82300001 4287037050
0.025865715 0.13716668 0.82300001 4287037047
0.027500002 0.13750002 0.82500005 4286971503
0.02907143 0.13750002 0.82500005 4287102567
0.039780006 0.13650002 0.81900007 4287626870
0.041340005 0.13650002 0.81900007 4287430272
-0.41304666 0.19706 1.169 4283321931
-0.41082001 0.19706 1.169 4283847757
-0.40859333 0.19706 1.169 4283651664
-0.40775719 0.1977343 1.1730001 4283454800
-0.40552288 0.1977343 1.1730001 4283388753
-0.4032886 0.1977343 1.1730001 4283322446
-0.40105429 0.1977343 1.1730001 4283322188
-0.39882004 0.1977343 1.1730001 4283322183
-0.39658573 0.1977343 1.1730001 4283256387
-0.39435145 0.1977343 1.1730001 4283256653
-0.39211717 0.1977343 1.1730001 4283322456
-0.38855335 0.19706 1.169 4283387731
-0.38500479 0.19638573 1.1650001 4283387727
-0.38147143 0.19571143 1.161 4283387725
-0.38056669 0.19638573 1.1650001 4283584331
-0.37834764 0.19638573 1.1650001 4283780686
-0.37483716 0.19571143 1.161 4283518545
-0.37519333 0.19706 1.169 4283322698
-0.37679526 0.19908287 1.1810001 4283387972
-0.37454575 0.19908287 1.1810001 4283453517
-0.37229621 0.19908287 1.1810001 4283519318
-0.37004671 0.19908287 1.1810001 4283585109
-0.36655146 0.19840857 1.177 4283520083
-0.36430955 0.19840857 1.177 4283519318
-0.36206764 0.19840857 1.177 4283519321
-0.35982573 0.19840857 1.177 4283584595
-0.35758382 0.19840857 1.177 4283519054
-0.35654956 0.19908287 1.1810001 4283453776
-0.35430005 0.19908287 1.1810001 4283454547
-0.34966573 0.1977343 1.1730001 4283454033
-0.34743145 0.1977343 1.1730001 4283584592
-0.33725142 0.19318287 1.146 4283781205
-0.33506858 0.19318287 1.146 4283650393
-0.33288571 0.19318287 1.146 4283519317
-0.33070287 0.19318287 1.146 4283519313
-0.01361619 0.14176857 0.84100002 4287037050
-0.012014287 0.14176857 0.84100002 4287102588
-0.0086428579 0.13907143 0.82500005 4287233626
-0.0070714285 0.13907143 0.82500005 4287299175
-0.0054866667 0.1387343 0.82300001 4287299188
-0.0039095236 0.13839714 0.82100004 4287364725
-0.002334286 0.13772286 0.81700003 4287299190
-0.00077809527 0.13772286 0.81700003 4287233656
0.00077809527 0.13772286 0.81700003 4287168123
0.0023400001 0.13806 0.81900007 4287102578
0.0039000001 0.13806 0.81900007 4287102569
0.0054266667 0.13721715 0.81400001 4287102562
0.0069257147 0.13620572 0.80800003 4287037020
0.0086009521 0.13839714 0.82100004 4287037031
0.010189524 0.1387343 0.82300001 4287102577
0.011785715 0.13907143 0.82500005 4287233652
0.013357143 0.13907143 0.82500005 4287168118
0.014928573 0.13907143 0.82500005 4287168113
0.01654 0.13940857 0.82700002 4287037036
0.018071428 0.13907143 0.82500005 4286971504
0.019690476 0.13940857 0.82700002 4286905716
0.021265715 0.13940857 0.82700002 4286905715
0.022840953 0.13940857 0.82700002 4286905971
0.024298096 0.1387343 0.82300001 4286971510
0.025865715 0.1387343 0.82300001 4286905976
0.027433334 0.1387343 0.82300001 4286840436
0.028930476 0.13839714 0.82100004 4286971504
0.030345716 0.13772286 0.81700003 4287102582
0.031901907 0.13772286 0.81700003 4287168125
0.033540003 0.13806 0.81900007 4287233654
0.035100002 0.13806 0.81900007 4287299184
0.036660004 0.13806 0.81900007 4287364720
0.038220003 0.13806 0.81900007 4287495792
0.039780006 0.13806 0.81900007 4287626864
0.041340005 0.13806 0.81900007 4287495792
0.046132382 0.13839714 0.82100004 4287495790
0.047696192 0.13839714 0.82100004 4287495791
0.049740005 0.13974573 0.82900006 4287495796
0.051071431 0.13907143 0.82500005 4287692409
0.05264286 0.13907143 0.82500005 4287954553
0.054082859 0.1387343 0.82300001 4287757945
0.055650476 0.1387343 0.82300001 4287561330
0.06282381 0.14075716 0.83500004 4287626868
0.064414285 0.14075716 0.83500004 4287495792
0.064898096 0.13839714 0.82100004 4287364722
0.066461906 0.13839714 0.82100004 4287495796
0.068025716 0.13839714 0.82100004 4287626864
-0.41385242 0.19860478 1.1650001 4283257412
-0.41163334 0.19860478 1.1650001 4283519566
-0.41082001 0.19928667 1.169 4283781964
-0.40859333 0.19928667 1.169 4283585610
-0.40636665 0.19928667 1.169 4283389260
-0.40414 0.19928667 1.169 4283322446
-0.40191334 0.19928667 1.169 4283191117
-0.39968669 0.19928667 1.169 4283256652
-0.39746001 0.19928667 1.169 4283322188
-0.39658573 0.19996858 1.1730001 4283256396
-0.39300668 0.19928667 1.169 4283257174
-0.39078 0.19928667 1.169 4283322465
-0.38722384 0.19860478 1.1650001 4283387736
-0.38368285 0.19792286 1.161 4283387727
-0.38147143 0.19792286 1.161 4283388492
-0.37925997 0.19792286 1.161 4283453513
-0.37704858 0.19792286 1.161 4283519054
-0.37483716 0.19792286 1.161 4283387988
-0.37390956 0.19860478 1.1650001 4283257160
-0.3742429 0.19996858 1.1730001 4283322429
-0.37327716 0.20065048 1.177 4283322438
-0.37103525 0.20065048 1.177 4283387727
-0.36879334 0.20065048 1.177 4283453263
-0.36655146 0.20065048 1.177 4283453263
-0.36430955 0.20065048 1.177 4283518801
-0.36206764 0.20065048 1.177 4283322195
-0.35982573 0.20065048 1.177 4283125583
-0.35758382 0.20065048 1.177 4282863435
-0.35534191 0.20065048 1.177 4282667088
-0.35430005 0.20133239 1.1810001 4282535766
-0.34966573 0.19996858 1.1730001 4282469970
-0.34387717 0.19792286 1.161 4282666574
-0.33931142 0.19655904 1.153 4282797904
-0.33506858 0.19536571 1.146 4283191379
-0.33288571 0.19536571 1.146 4283519313
-0.33070287 0.19536571 1.146 4283519311
-0.0086428579 0.14064285 0.82500005 4287233619
-0.0070714285 0.14064285 0.82500005 4287233631
-0.0055000004 0.14064285 0.82500005 4287364716
