# .PCD v0.7 - Point Cloud Data file format
VERSION 0.7
FIELDS x y z rgba
SIZE 4 4 4 4
TYPE F F F U
COUNT 1 1 1 1
WIDTH 1117
HEIGHT 1
VIEWPOINT 0 0 0 1 0 0 0
POINTS 1117
DATA ascii
-0.3681457 0.39825431 1.437 4281941081
-0.36388287 0.39659145 1.4310001 4282926433
-0.36115718 0.39659145 1.4310001 4283911781
-0.35692859 0.39492857 1.4250001 4284310377
-0.35272285 0.39326572 1.419 4284774758
-0.35001999 0.39326572 1.419 4285495908
-0.34315622 0.3885543 1.4020001 4286282618
-0.34048572 0.3885543 1.4020001 4286879376
-0.33636954 0.38689145 1.396 4287536276
-0.33371046 0.38689145 1.396 4287204504
-0.33247429 0.3885543 1.4020001 4286875277
-0.32980382 0.3885543 1.4020001 4287795586
-0.32713336 0.3885543 1.4020001 4288654751
-0.32446286 0.3885543 1.4020001 4289179581
-0.32041523 0.38689145 1.396 4289704379
-0.3191219 0.3885543 1.4020001 4289770170
-0.31645143 0.3885543 1.4020001 4289836227
-0.31378096 0.3885543 1.4020001 4289049805
-0.31222001 0.38993999 1.4070001 4288192665
-0.31086001 0.3916029 1.4130001 4286210662
-0.30816859 0.3916029 1.4130001 4284241772
-0.30677429 0.39326572 1.419 4284963955
-0.30535716 0.39492857 1.4250001 4285685897
-0.30519146 0.39825431 1.437 4286948767
-0.30245429 0.39825431 1.437 4288259215
-0.30347145 0.40324286 1.455 4286411135
-0.30070001 0.40324286 1.455 4284504440
-0.1547924 0.25164574 0.90800005 4281806906
-0.15390572 0.25303143 0.91300005 4282264636
-0.1525 0.25358573 0.91500002 4282860095
-0.15075713 0.25358573 0.91500002 4283454793
-0.14934 0.25414002 0.91700006 4283913812
-0.14759333 0.25414002 0.91700006 4284439134
-0.20454001 0.40490574 1.4610001 4281538375
-0.20175716 0.40490574 1.4610001 4279243336
-0.1989743 0.40490574 1.4610001 4281807690
-0.19699715 0.40656859 1.4670001 4284375390
-0.19340858 0.40490574 1.4610001 4285031027
-0.19062573 0.40490574 1.4610001 4285684335
-0.18784288 0.40490574 1.4610001 4285815404
-0.18506001 0.40490574 1.4610001 4285949302
-0.18302573 0.40656859 1.4670001 4286936193
-0.18023144 0.40656859 1.4670001 4287918730
-0.17816286 0.40823144 1.473 4288775572
-0.17535715 0.40823144 1.473 4289629851
-0.17337143 0.41017142 1.48 4289168802
-0.17055239 0.41017142 1.48 4288707743
-0.16841334 0.4118343 1.4860001 4289231773
-0.16558285 0.4118343 1.4860001 4289702318
-0.16340953 0.41349715 1.4920001 4290621631
-0.16132095 0.41543716 1.4990001 4291540156
-0.065397151 0.40490574 1.4610001 4285487364
-0.062614284 0.40490574 1.4610001 4290694265
-0.060077146 0.40656859 1.4670001 4292799215
-0.057282865 0.40656859 1.4670001 4294901483
-0.054488577 0.40656859 1.4670001 4294702568
-0.051905718 0.40823144 1.473 4294503909
-0.0491 0.40823144 1.473 4294503907
-0.046294287 0.40823144 1.473 4294505952
-0.043695237 0.41017142 1.48 4294440413
-0.04068286 0.40823144 1.473 4294440415
-0.037877142 0.40823144 1.473 4294504162
-0.035071429 0.40823144 1.473 4294569187
-0.032265715 0.40823144 1.473 4294504164
-0.02946 0.40823144 1.473 4294507234
-0.026545716 0.40656859 1.4670001 4294436321
-0.023751432 0.40656859 1.4670001 4294372064
-0.020957144 0.40656859 1.4670001 4294307039
-0.018237142 0.40823144 1.473 4294241757
-0.015431429 0.40823144 1.473 4294110172
-0.012625714 0.40823144 1.473 4293978830
-0.0098200003 0.40823144 1.473 4294042816
-0.0070142858 0.40823144 1.473 4294042828
-0.0042285714 0.41017142 1.48 4293911000
-0.0014095238 0.41017142 1.48 4293779416
0.0014095238 0.41017142 1.48 4293648601
0.0042285714 0.41017142 1.48 4293583573
0.0070476192 0.41017142 1.48 4293583826
0.009866667 0.41017142 1.48 4293584076
0.012625714 0.40823144 1.473 4293189062
0.015504763 0.41017142 1.48 4292859843
0.018237142 0.40823144 1.473 4292793536
0.021142857 0.41017142 1.48 4292727486
0.023961904 0.41017142 1.48 4292528572
0.026780954 0.41017142 1.48 4292395439
0.029340003 0.40656859 1.4670001 4292264354
0.032002859 0.40490574 1.4610001 4292199075
0.034214284 0.39825431 1.437 4292134820
0.03648857 0.39326572 1.419 4292135084
0.03902572 0.3916029 1.4130001 4291146932
0.041392382 0.3885543 1.4020001 4290163374
0.043874286 0.38689145 1.396 4290425768
0.046533335 0.38689145 1.396 4290622630
0.048804764 0.38384289 1.3850001 4290097316
0.051034287 0.38079429 1.3740001 4289572805
0.05365143 0.38079429 1.3740001 4292005095
0.056022856 0.37913144 1.368 4294377202
0.05862857 0.37913144 1.368 4294573310
0.061234292 0.37913144 1.368 4294769405
0.063606672 0.37774572 1.363 4294835196
0.066445716 0.37913144 1.368 4294901500
0.069051422 0.37913144 1.368 4294901501
0.071657151 0.37913144 1.368 4294901501
0.074262857 0.37913144 1.368 4294835966
0.076868579 0.37913144 1.368 4294835966
0.079822861 0.38079429 1.3740001 4294770430
0.082440004 0.38079429 1.3740001 4294770429
0.085057147 0.38079429 1.3740001 4294770428
0.08767429 0.38079429 1.3740001 4294770429
0.090291433 0.38079429 1.3740001 4294835966
0.092908576 0.38079429 1.3740001 4294901502
0.095525712 0.38079429 1.3740001 4294901502
0.098142862 0.38079429 1.3740001 4294901502
0.10076001 0.38079429 1.3740001 4294901502
0.10337715 0.38079429 1.3740001 4294901502
0.10638 0.38218004 1.3790001 4294901502
0.10900667 0.38218004 1.3790001 4294901502
0.11163334 0.38218004 1.3790001 4294901502
0.11426 0.38218004 1.3790001 4294901502
0.11688667 0.38218004 1.3790001 4294901502
0.11951334 0.38218004 1.3790001 4294901502
0.12267143 0.38384289 1.3850001 4294901502
0.13444763 0.4118343 1.4860001 4294901502
0.1367238 0.41017142 1.48 4294901502
0.13888286 0.40823144 1.473 4294901502
0.14236189 0.41017142 1.48 4294901502
0.1444943 0.40823144 1.473 4294901502
0.148 0.41017142 1.48 4294901502
0.15081905 0.41017142 1.48 4294901502
0.15363809 0.41017142 1.48 4294901502
0.15645714 0.41017142 1.48 4294901502
0.15927619 0.41017142 1.48 4294901502
0.16209523 0.41017142 1.48 4294901502
0.16413429 0.40823144 1.473 4294901502
0.16773333 0.41017142 1.48 4294901502
0.16974571 0.40823144 1.473 4294901502
0.17184858 0.40656859 1.4670001 4294901502
0.17464288 0.40656859 1.4670001 4294901502
0.17743716 0.40656859 1.4670001 4294901502
0.18023144 0.40656859 1.4670001 4294901502
0.18302573 0.40656859 1.4670001 4294901502
0.18582001 0.40656859 1.4670001 4294901502
0.18861429 0.40656859 1.4670001 4294901502
0.19140859 0.40656859 1.4670001 4294901502
0.19499715 0.40823144 1.473 4294901502
0.19780286 0.40823144 1.473 4294901502
0.20060858 0.40823144 1.473 4294901502
0.20341429 0.40823144 1.473 4294901502
0.20538001 0.40656859 1.4670001 4294901502
0.20902571 0.40823144 1.473 4294901502
0.21183144 0.40823144 1.473 4294901502
0.21463715 0.40823144 1.473 4294901502
0.21655716 0.40656859 1.4670001 4294901502
0.21935144 0.40656859 1.4670001 4294901502
0.22214574 0.40656859 1.4670001 4294901502
0.22494002 0.40656859 1.4670001 4294901502
0.2277343 0.40656859 1.4670001 4294901492
0.23052859 0.40656859 1.4670001 4293717482
-0.3769629 0.18500859 0.66300005 4287269002
-0.3757 0.18500859 0.66300005 4286939015
-0.37556666 0.18556666 0.66500002 4286610049
-0.3743 0.18556666 0.66500002 4286413436
-0.37415528 0.18612477 0.66700006 4286282359
-0.37288478 0.18612477 0.66700006 4286085746
-0.37885717 0.18975239 0.68000001 4285889141
-0.3775619 0.18975239 0.68000001 4286020729
-0.37737337 0.19031049 0.68200004 4286216314
-0.37607431 0.19031049 0.68200004 4286149755
-0.37532476 0.19058953 0.68300003 4286082935
-0.37457144 0.19086857 0.68400002 4285819507
-0.37490574 0.19170573 0.68700004 4285621869
-0.37468475 0.19226381 0.68900001 4285490024
-0.37391433 0.19254287 0.69000006 4285359204
-0.37314004 0.19282192 0.69100004 4285227104
-0.37182385 0.19282192 0.69100004 4285163112
-0.37050763 0.19282192 0.69100004 4284900720
-0.36919147 0.19282192 0.69100004 4284703845
-0.36787525 0.19282192 0.69100004 4284834907
-0.45512572 0.31978858 1.146 4284572266
-0.45136192 0.31867239 1.1420001 4284700772
-0.44918668 0.31867239 1.1420001 4284895567
-0.44701144 0.31867239 1.1420001 4282206779
-0.44483623 0.31867239 1.1420001 4279577391
-0.44266099 0.31867239 1.1420001 4279307555
-0.44048575 0.31867239 1.1420001 4279110435
-0.4383105 0.31867239 1.1420001 4279109923
-0.43613526 0.31867239 1.1420001 4279176484
-0.43396002 0.31867239 1.1420001 4279374373
-0.43178478 0.31867239 1.1420001 4279637028
-0.42960954 0.31867239 1.1420001 4279572002
-0.4274343 0.31867239 1.1420001 4279505960
-0.42525908 0.31867239 1.1420001 4279571246
-0.4245657 0.31978858 1.146 4279636773
-0.42238286 0.31978858 1.146 4279897885
-0.41873336 0.31867239 1.1420001 4280161832
-0.41655812 0.31867239 1.1420001 4280819252
-0.41438287 0.31867239 1.1420001 4281542973
-0.41220763 0.31867239 1.1420001 4282134854
-0.41003239 0.31867239 1.1420001 4282790208
-0.40785718 0.31867239 1.1420001 4282331451
-0.40568194 0.31867239 1.1420001 4281872440
-0.4035067 0.31867239 1.1420001 4281282358
-0.40273717 0.31978858 1.146 4280754743
-0.39915624 0.31867239 1.1420001 4280359992
-0.39976192 0.32090479 1.1500001 4280032050
-0.39618859 0.31978858 1.146 4280162859
-0.39263049 0.31867239 1.1420001 4280293936
-0.39045525 0.31867239 1.1420001 4280228916
-0.38828003 0.31867239 1.1420001 4280228903
-0.38610479 0.31867239 1.1420001 4280097817
-0.37050003 0.39764288 1.4250001 4281479495
-0.36778572 0.39764288 1.4250001 4281740099
-0.36507145 0.39764288 1.4250001 4282009940
-0.36235714 0.39764288 1.4250001 4283326822
-0.35964289 0.39764288 1.4250001 4284639081
-0.35542575 0.39596856 1.419 4284771948
-0.35123146 0.39429432 1.4130001 4284971382
-0.34286669 0.38787621 1.3900001 4286022529
-0.33899528 0.38648096 1.3850001 4287074184
-0.33635715 0.38648096 1.3850001 4287143056
-0.33371907 0.38648096 1.3850001 4287273364
-0.3322762 0.38787621 1.3900001 4286940056
-0.32962859 0.38787621 1.3900001 4286678427
-0.32698098 0.38787621 1.3900001 4288324510
-0.32433334 0.38787621 1.3900001 4289964716
-0.32168573 0.38787621 1.3900001 4289704634
-0.32041523 0.38955048 1.396 4289441726
-0.31775621 0.38955048 1.396 4289768899
-0.31645143 0.39122477 1.4020001 4290162110
-0.31378096 0.39122477 1.4020001 4288327354
-0.31222001 0.39262 1.4070001 4286479763
-0.31086001 0.39429432 1.4130001 4285548397
-0.30947715 0.39596856 1.419 4284703337
-0.30807143 0.39764288 1.4250001 4285751653
-0.30664289 0.39931715 1.4310001 4286809220
-0.30391717 0.39931715 1.4310001 4287278755
-0.30498004 0.40434003 1.4490001 4287793291
-0.30222002 0.40434003 1.4490001 4286013043
-0.30070001 0.40601429 1.455 4284243567
-0.15652192 0.25337523 0.90800005 4281479223
-0.1547924 0.25337523 0.90800005 4282068545
-0.1534 0.25393334 0.91000003 4282725186
-0.15166667 0.25393334 0.91000003 4283256899
-0.15042762 0.25477049 0.91300005 4283782989
-0.14901428 0.25532857 0.91500002 4284372823
-0.14727144 0.25532857 0.91500002 4285028960
-0.20258573 0.40936288 1.4670001 4278659133
-0.19979145 0.40936288 1.4670001 4281149756
-0.19699715 0.40936288 1.4670001 4283652438
-0.19340858 0.40768859 1.4610001 4284703856
-0.19062573 0.40768859 1.4610001 4285816167
-0.18784288 0.40768859 1.4610001 4285814879
-0.18506001 0.40768859 1.4610001 4285882222
-0.18302573 0.40936288 1.4670001 4286871165
-0.18023144 0.40936288 1.4670001 4287853193
-0.17816286 0.41103715 1.473 4288774037
-0.17535715 0.41103715 1.473 4289695393
-0.17337143 0.41299048 1.48 4289368749
-0.17055239 0.41299048 1.48 4289102501
-0.16841334 0.41466478 1.4860001 4289032094
-0.16558285 0.41466478 1.4860001 4289046192
-0.16340953 0.41633907 1.4920001 4290293699
-0.16132095 0.4182924 1.4990001 4291604927
-0.070671432 0.40601429 1.455 4281467393
-0.068180002 0.40768859 1.4610001 4281747511
-0.065397151 0.40768859 1.4610001 4288328045
-0.062614284 0.40768859 1.4610001 4294895021
-0.059831429 0.40768859 1.4610001 4294901230
-0.057282865 0.40936288 1.4670001 4294899433
-0.054488577 0.40936288 1.4670001 4294635748
-0.051694289 0.40936288 1.4670001 4294372578
-0.048900004 0.40936288 1.4670001 4294437600
-0.046105716 0.40936288 1.4670001 4294568411
-0.043488573 0.41103715 1.473 4294437079
-0.040517144 0.40936288 1.4670001 4294306780
-0.037722863 0.40936288 1.4670001 4294438626
-0.034928575 0.40936288 1.4670001 4294635490
-0.032134287 0.40936288 1.4670001 4294636003
-0.029340003 0.40936288 1.4670001 4294635489
-0.026545716 0.40936288 1.4670001 4294503904
-0.023654288 0.40768859 1.4610001 4294372830
-0.020871429 0.40768859 1.4610001 4294241756
-0.018162858 0.40936288 1.4670001 4294175964
-0.015368572 0.40936288 1.4670001 4293976795
-0.012574286 0.40936288 1.4670001 4293846737
-0.0097800009 0.40936288 1.4670001 4293912264
-0.0069857147 0.40936288 1.4670001 4294043086
-0.0042085717 0.41103715 1.473 4293846228
-0.0014028571 0.41103715 1.473 4293714645
0.001397143 0.40936288 1.4670001 4293647575
0.0042085717 0.41103715 1.473 4293583058
0.0070142858 0.41103715 1.473 4293649870
0.0098200003 0.41103715 1.473 4293714632
0.012625714 0.41103715 1.473 4293255107
0.015431429 0.41103715 1.473 4292860099
0.018237142 0.41103715 1.473 4292725955
0.021042857 0.41103715 1.473 4292659904
0.023848571 0.41103715 1.473 4292528573
0.026654286 0.41103715 1.473 4292397233
0.029340003 0.40936288 1.4670001 4292266150
0.031871427 0.40601429 1.455 4292199589
0.034357142 0.40266573 1.4430001 4292134820
0.036642861 0.39764288 1.4250001 4292136621
0.03902572 0.39429432 1.4130001 4291213238
0.041540001 0.39262 1.4070001 4290295473
0.043874286 0.38955048 1.396 4290492076
0.046533335 0.38955048 1.396 4290688424
0.048804764 0.38648096 1.3850001 4290228645
0.05122 0.38480669 1.3790001 4289768386
0.05365143 0.38341147 1.3740001 4292203744
0.056268577 0.38341147 1.3740001 4294639087
0.05862857 0.38173714 1.368 4294638078
0.061234292 0.38173714 1.368 4294703613
0.063839994 0.38173714 1.368 4294769405
0.066445716 0.38173714 1.368 4294900989
0.069051422 0.38173714 1.368 4294900477
0.071971431 0.38341147 1.3740001 4294901501
0.074588574 0.38341147 1.3740001 4294901502
0.077205718 0.38341147 1.3740001 4294901502
0.079822861 0.38341147 1.3740001 4294901502
0.082440004 0.38341147 1.3740001 4294901501
0.085057147 0.38341147 1.3740001 4294901501
0.08767429 0.38341147 1.3740001 4294901501
0.090291433 0.38341147 1.3740001 4294901502
0.092908576 0.38341147 1.3740001 4294901502
0.095525712 0.38341147 1.3740001 4294901502
0.098142862 0.38341147 1.3740001 4294901502
0.10076001 0.38341147 1.3740001 4294901502
0.10337715 0.38341147 1.3740001 4294901502
0.10638 0.38480669 1.3790001 4294901502
0.10900667 0.38480669 1.3790001 4294901502
0.11163334 0.38480669 1.3790001 4294901502
0.11426 0.38480669 1.3790001 4294901502
0.11688667 0.38480669 1.3790001 4294901502
0.11951334 0.38480669 1.3790001 4294901502
0.12267143 0.38648096 1.3850001 4294901502
0.13444763 0.41466478 1.4860001 4294901502
0.13607715 0.41103715 1.473 4294901502
0.13831715 0.40936288 1.4670001 4294901502
0.14111143 0.40936288 1.4670001 4294901502
0.14390573 0.40936288 1.4670001 4294901502
0.1473 0.41103715 1.473 4294901502
0.14949429 0.40936288 1.4670001 4294901502
0.15228859 0.40936288 1.4670001 4294901502
0.15571715 0.41103715 1.473 4294901502
0.15852286 0.41103715 1.473 4294901502
0.16132857 0.41103715 1.473 4294901502
0.16346572 0.40936288 1.4670001 4294901502
0.16626 0.40936288 1.4670001 4294901502
0.1690543 0.40936288 1.4670001 4294901502
0.17184858 0.40936288 1.4670001 4294901502
0.17464288 0.40936288 1.4670001 4294901502
0.17743716 0.40936288 1.4670001 4294901502
0.18023144 0.40936288 1.4670001 4294901502
0.18302573 0.40936288 1.4670001 4294901502
0.18582001 0.40936288 1.4670001 4294901502
0.18861429 0.40936288 1.4670001 4294901502
0.19140859 0.40936288 1.4670001 4294901502
0.19420289 0.40936288 1.4670001 4294901502
0.19699715 0.40936288 1.4670001 4294901502
0.19979145 0.40936288 1.4670001 4294901502
0.20258573 0.40936288 1.4670001 4294901502
0.20538001 0.40936288 1.4670001 4294901502
0.2081743 0.40936288 1.4670001 4294901502
0.21096858 0.40936288 1.4670001 4294901502
0.21376288 0.40936288 1.4670001 4294901502
0.21655716 0.40936288 1.4670001 4294901502
0.21935144 0.40936288 1.4670001 4294901502
0.22214574 0.40936288 1.4670001 4294901502
0.22494002 0.40936288 1.4670001 4294901502
0.22866572 0.41103715 1.473 4294901497
0.23052859 0.40936288 1.4670001 4294901492
0.23332287 0.40936288 1.4670001 4294897064
-0.3769629 0.18627143 0.66300005 4287205004
-0.3757 0.18627143 0.66300005 4286873225
-0.37556666 0.18683334 0.66500002 4286609793
-0.37486288 0.18711428 0.66600001 4286413177
-0.37415528 0.18739524 0.66700006 4286282095
-0.37400284 0.18795715 0.66900003 4286282086
-0.37885717 0.19104762 0.68000001 4286347886
-0.3775619 0.19104762 0.68000001 4286281846
-0.37626669 0.19104762 0.68000001 4286216056
-0.37607431 0.19160953 0.68200004 4286150522
-0.37532476 0.19189049 0.68300003 4286085240
-0.37402382 0.19189049 0.68300003 4285820279
-0.37490574 0.19301429 0.68700004 4285557106
-0.37468475 0.19357619 0.68900001 4285425517
-0.3744562 0.19413811 0.69100004 4285293927
-0.37421998 0.19470002 0.69300002 4285294177
-0.37290001 0.19470002 0.69300002 4285294444
-0.37158 0.19470002 0.69300002 4285163639
-0.37026 0.19470002 0.69300002 4285032813
-0.36894003 0.19470002 0.69300002 4285032803
-0.45353717 0.32084763 1.1420001 4284440673
-0.45136192 0.32084763 1.1420001 4283061848
-0.44918668 0.32084763 1.1420001 4281683260
-0.44701144 0.32084763 1.1420001 4280298272
-0.44483623 0.32084763 1.1420001 4278979625
-0.44266099 0.32084763 1.1420001 4279175986
-0.44048575 0.32084763 1.1420001 4279372574
-0.4383105 0.32084763 1.1420001 4279372811
-0.43613526 0.32084763 1.1420001 4279373334
-0.43396002 0.32084763 1.1420001 4279767586
-0.43178478 0.32084763 1.1420001 4280097056
-0.42960954 0.32084763 1.1420001 4279768350
-0.4274343 0.32084763 1.1420001 4279506210
-0.42525908 0.32084763 1.1420001 4279505959
-0.4245657 0.32197145 1.146 4279571496
-0.4209086 0.32084763 1.1420001 4279899689
-0.41873336 0.32084763 1.1420001 4280293423
-0.41655812 0.32084763 1.1420001 4280819765
-0.41438287 0.32084763 1.1420001 4281411651
-0.41220763 0.32084763 1.1420001 4281872465
-0.41003239 0.32084763 1.1420001 4282395972
-0.40785718 0.32084763 1.1420001 4282003768
-0.40568194 0.32084763 1.1420001 4281610805
-0.4035067 0.32084763 1.1420001 4281150258
-0.40133145 0.32084763 1.1420001 4280623411
-0.40055427 0.32197145 1.146 4280294197
-0.39976192 0.32309526 1.1500001 4279898411
-0.39618859 0.32197145 1.146 4279900194
-0.39400575 0.32197145 1.146 4279900712
-0.39182284 0.32197145 1.146 4279834671
-0.38964 0.32197145 1.146 4279768362
-0.38610479 0.32084763 1.1420001 4279636262
-0.39262 0.39530003 1.4070001 4280951351
-0.38993999 0.39530003 1.4070001 4280886065
-0.38726002 0.39530003 1.4070001 4280885041
-0.38458002 0.39530003 1.4070001 4280819250
-0.37787241 0.39389527 1.4020001 4280886075
-0.37520191 0.39389527 1.4020001 4280953409
-0.37386 0.39530003 1.4070001 4281216072
-0.37118 0.39530003 1.4070001 4281545290
-0.37007147 0.39698574 1.4130001 4281610828
-0.36738002 0.39698574 1.4130001 4281741120
-0.36468861 0.39698574 1.4130001 4282466869
-0.36199716 0.39698574 1.4130001 4283258448
-0.35778001 0.39530003 1.4070001 4284048747
-0.35510001 0.39530003 1.4070001 4284901741
-0.35116762 0.39389527 1.4020001 4285230703
-0.34700572 0.39220953 1.396 4285561222
-0.34286669 0.39052382 1.3900001 4286615198
-0.33899528 0.38911909 1.3850001 4287667863
-0.33635715 0.38911909 1.3850001 4287338897
-0.33371907 0.38911909 1.3850001 4287010708
-0.33108097 0.38911909 1.3850001 4287529368
-0.32844287 0.38911909 1.3850001 4287989161
-0.3258048 0.38911909 1.3850001 4288849595
-0.32316667 0.38911909 1.3850001 4289775289
-0.32168573 0.39052382 1.3900001 4289703863
-0.31903812 0.39052382 1.3900001 4289703618
-0.31639048 0.39052382 1.3900001 4289705933
-0.31645143 0.39389527 1.4020001 4289709498
-0.31378096 0.39389527 1.4020001 4287533479
-0.31222001 0.39530003 1.4070001 4285422221
-0.31218001 0.39867145 1.419 4285227892
-0.30947715 0.39867145 1.419 4285033830
-0.30807143 0.40035716 1.4250001 4286548568
-0.30535716 0.40035716 1.4250001 4288063615
-0.30391717 0.40204287 1.4310001 4286878631
-0.30119145 0.40204287 1.4310001 4285754503
-0.30222002 0.40710005 1.4490001 4285095783
-0.15772857 0.25426191 0.90500003 4281479216
-0.15652192 0.25510478 0.90800005 4281741116
-0.1547924 0.25510478 0.90800005 4282397769
-0.1534 0.25566667 0.91000003 4283054664
-0.15166667 0.25566667 0.91000003 4283454279
-0.15042762 0.25650954 0.91300005 4283914577
-0.14868857 0.25650954 0.91300005 4284308059
-0.14694953 0.25650954 0.91300005 4284701537
-0.20258573 0.41215718 1.4670001 4278716977
-0.1989743 0.41047144 1.4610001 4280623150
-0.19619143 0.41047144 1.4610001 4282602061
-0.19340858 0.41047144 1.4610001 4284245613
-0.19062573 0.41047144 1.4610001 4285882464
-0.18784288 0.41047144 1.4610001 4285684307
-0.18582001 0.41215718 1.4670001 4285553254
-0.18377429 0.41384286 1.473 4286674553
-0.18096858 0.41384286 1.473 4287787911
-0.17816286 0.41384286 1.473 4288707990
-0.17619048 0.41580951 1.48 4289695655
-0.17337143 0.41580951 1.48 4289629112
-0.17055239 0.41580951 1.48 4289562796
-0.16841334 0.41749525 1.4860001 4289029792
-0.16558285 0.41749525 1.4860001 4288586931
-0.16275239 0.41749525 1.4860001 4290096327
-0.16132095 0.42114764 1.4990001 4291672514
-0.076214284 0.40878573 1.455 4281023294
-0.073442861 0.40878573 1.455 4279835167
-0.070671432 0.40878573 1.455 4283181825
-0.068180002 0.41047144 1.4610001 4286615659
-0.065397151 0.41047144 1.4610001 4290761686
-0.062614284 0.41047144 1.4610001 4294901474
-0.059831429 0.41047144 1.4610001 4294703342
-0.057048574 0.41047144 1.4610001 4294569447
-0.054488577 0.41215718 1.4670001 4294438113
-0.05148286 0.41047144 1.4610001 4294372575
-0.048900004 0.41215718 1.4670001 4294504158
-0.045917142 0.41047144 1.4610001 4294636247
-0.043311432 0.41215718 1.4670001 4294569937
-0.040351432 0.41047144 1.4610001 4294438361
-0.037568573 0.41047144 1.4610001 4294503906
-0.034785714 0.41047144 1.4610001 4294637538
-0.032002859 0.41047144 1.4610001 4294570210
-0.029220002 0.41047144 1.4610001 4294569696
-0.026437143 0.41047144 1.4610001 4294438367
-0.023654288 0.41047144 1.4610001 4294372828
-0.020871429 0.41047144 1.4610001 4294241754
-0.018162858 0.41215718 1.4670001 4294175962
-0.015368572 0.41215718 1.4670001 4294042843
-0.012574286 0.41215718 1.4670001 4293912277
-0.0097800009 0.41215718 1.4670001 4293977296
-0.0069857147 0.41215718 1.4670001 4294111696
-0.0041914289 0.41215718 1.4670001 4293912529
-0.001397143 0.41215718 1.4670001 4293781203
0.001397143 0.41215718 1.4670001 4293648085
0.0041914289 0.41215718 1.4670001 4293517008
0.0069857147 0.41215718 1.4670001 4293517259
0.0097800009 0.41215718 1.4670001 4293517509
0.012574286 0.41215718 1.4670001 4293189056
0.015368572 0.41215718 1.4670001 4292926147
0.018162858 0.41215718 1.4670001 4292791751
0.020957144 0.41215718 1.4670001 4292659650
0.023751432 0.41215718 1.4670001 4292463038
0.026545716 0.41215718 1.4670001 4292332212
0.029220002 0.41047144 1.4610001 4292265386
0.031871427 0.40878573 1.455 4292198823
0.034642857 0.40878573 1.455 4292265636
0.036797147 0.40204287 1.4310001 4292269230
0.03902572 0.39698574 1.4130001 4291276473
0.041392382 0.39389527 1.4020001 4290292917
0.043874286 0.39220953 1.396 4290490801
0.046333339 0.39052382 1.3900001 4290623147
0.048804764 0.38911909 1.3850001 4290228646
0.05122 0.38743335 1.3790001 4289767360
0.05365143 0.38602859 1.3740001 4292268506
0.056268577 0.38602859 1.3740001 4294704364
0.05862857 0.38434285 1.368 4294770174
0.061234292 0.38434285 1.368 4294770430
0.063839994 0.38434285 1.368 4294835966
0.066445716 0.38434285 1.368 4294901502
0.069354288 0.38602859 1.3740001 4294901502
0.071971431 0.38602859 1.3740001 4294901502
0.074588574 0.38602859 1.3740001 4294901502
0.077205718 0.38602859 1.3740001 4294901502
0.079822861 0.38602859 1.3740001 4294901502
0.082440004 0.38602859 1.3740001 4294901502
0.085057147 0.38602859 1.3740001 4294901502
0.08767429 0.38602859 1.3740001 4294901502
0.090291433 0.38602859 1.3740001 4294901502
0.092908576 0.38602859 1.3740001 4294901502
0.095525712 0.38602859 1.3740001 4294901502
0.098142862 0.38602859 1.3740001 4294901502
0.10076001 0.38602859 1.3740001 4294901502
0.10337715 0.38602859 1.3740001 4294901502
0.10638 0.38743335 1.3790001 4294901502
0.10900667 0.38743335 1.3790001 4294901502
0.11163334 0.38743335 1.3790001 4294901502
0.11426 0.38743335 1.3790001 4294901502
0.11688667 0.38743335 1.3790001 4294901502
0.11951334 0.38743335 1.3790001 4294901502
0.12267143 0.38911909 1.3850001 4294901502
0.13444763 0.41749525 1.4860001 4294901502
0.13607715 0.41384286 1.473 4294901502
0.13831715 0.41215718 1.4670001 4294901502
0.14111143 0.41215718 1.4670001 4294901502
0.14390573 0.41215718 1.4670001 4294901502
0.14670001 0.41215718 1.4670001 4294901502
0.14949429 0.41215718 1.4670001 4294901502
0.15228859 0.41215718 1.4670001 4294901502
0.15508288 0.41215718 1.4670001 4294901502
0.15787715 0.41215718 1.4670001 4294901502
0.16067144 0.41215718 1.4670001 4294901502
0.16346572 0.41215718 1.4670001 4294901502
0.16626 0.41215718 1.4670001 4294901502
0.1690543 0.41215718 1.4670001 4294901502
0.17184858 0.41215718 1.4670001 4294901502
0.17392859 0.41047144 1.4610001 4294901502
0.17671144 0.41047144 1.4610001 4294901502
0.17949429 0.41047144 1.4610001 4294901502
0.18227714 0.41047144 1.4610001 4294901502
0.18506001 0.41047144 1.4610001 4294901502
0.18784288 0.41047144 1.4610001 4294901502
0.19062573 0.41047144 1.4610001 4294901502
0.19340858 0.41047144 1.4610001 4294901502
0.19699715 0.41215718 1.4670001 4294901502
0.19979145 0.41215718 1.4670001 4294901502
0.20258573 0.41215718 1.4670001 4294901502
0.20538001 0.41215718 1.4670001 4294901502
0.2081743 0.41215718 1.4670001 4294901502
0.21096858 0.41215718 1.4670001 4294901502
0.21376288 0.41215718 1.4670001 4294901502
0.21655716 0.41215718 1.4670001 4294901502
0.21935144 0.41215718 1.4670001 4294901502
0.22214574 0.41215718 1.4670001 4294901502
0.22402 0.41047144 1.4610001 4294901502
0.22680287 0.41047144 1.4610001 4294901502
0.22958572 0.41047144 1.4610001 4294901502
0.23236859 0.41047144 1.4610001 4294901468
-0.3769629 0.18753429 0.66300005 4287204491
-0.3757 0.18753429 0.66300005 4286872970
-0.37613145 0.18838286 0.66600001 4286610050
-0.37542573 0.18866573 0.66700006 4286478459
-0.37527716 0.18923144 0.66900003 4286346868
-0.37456191 0.18951429 0.67000002 4286543212
-0.37328571 0.18951429 0.67000002 4286805617
-0.3775619 0.19234286 0.68000001 4286543735
-0.37626669 0.19234286 0.68000001 4286281337
-0.37497142 0.19234286 0.68000001 4286150267
-0.37587428 0.19347429 0.68400002 4286083961
-0.37457144 0.19347429 0.68400002 4285821047
-0.37599713 0.19488856 0.68900001 4285557105
-0.37577242 0.1954543 0.69100004 4285425771
-0.37554002 0.19601999 0.69300002 4285294690
-0.37421998 0.19601999 0.69300002 4285360217
-0.37343812 0.19630285 0.69400001 4285425762
-0.37158 0.19601999 0.69300002 4285426026
-0.37026 0.19601999 0.69300002 4285425766
-0.36894003 0.19601999 0.69300002 4285294689
-0.45353717 0.32302287 1.1420001 4284367432
-0.45136192 0.32302287 1.1420001 4281412928
-0.44918668 0.32302287 1.1420001 4278524726
-0.44544572 0.32189143 1.138 4278454571
-0.4432781 0.32189143 1.138 4278390828
-0.44111049 0.32189143 1.138 4279048494
-0.43894288 0.32189143 1.138 4279703327
-0.43677524 0.32189143 1.138 4279637264
-0.43460763 0.32189143 1.138 4279637018
-0.43244001 0.32189143 1.138 4280095524
-0.4302724 0.32189143 1.138 4280619552
-0.42960954 0.32302287 1.1420001 4280029724
-0.4274343 0.32302287 1.1420001 4279505185
-0.42525908 0.32302287 1.1420001 4279505191
-0.42308384 0.32302287 1.1420001 4279571494
-0.4209086 0.32302287 1.1420001 4279965990
-0.41873336 0.32302287 1.1420001 4280424491
-0.41655812 0.32302287 1.1420001 4280820527
-0.41438287 0.32302287 1.1420001 4281280823
-0.41220763 0.32302287 1.1420001 4281675582
-0.41003239 0.32302287 1.1420001 4282069048
-0.40785718 0.32302287 1.1420001 4281741874
-0.40568194 0.32302287 1.1420001 4281414447
-0.4035067 0.32302287 1.1420001 4280952620
-0.40133145 0.32302287 1.1420001 4280556334
-0.40055427 0.32415429 1.146 4280162865
-0.39837143 0.32415429 1.146 4279834668
-0.39618859 0.32415429 1.146 4279703079
-0.39400575 0.32415429 1.146 4279572010
-0.3931905 0.32528573 1.1500001 4279441198
-0.39100003 0.32528573 1.1500001 4279309096
-0.38880956 0.32528573 1.1500001 4279176483
-0.39262 0.39798003 1.4070001 4280755000
-0.3916029 0.39967719 1.4130001 4280820531
-0.39056286 0.40137431 1.419 4280885299
-0.38786003 0.40137431 1.419 4280819508
-0.38190001 0.39798003 1.4070001 4280755256
-0.37922004 0.39798003 1.4070001 4280820796
-0.37654001 0.39798003 1.4070001 4280953920
-0.37386 0.39798003 1.4070001 4281347653
-0.37118 0.39798003 1.4070001 4281742150
-0.36850002 0.39798003 1.4070001 4281873224
-0.36582002 0.39798003 1.4070001 4282071630
-0.36314002 0.39798003 1.4070001 4283260245
-0.36046001 0.39798003 1.4070001 4284506977
-0.35650858 0.39656574 1.4020001 4284836461
-0.35383812 0.39656574 1.4020001 4285164653
-0.34816194 0.39317143 1.3900001 4285624173
-0.34551433 0.39317143 1.3900001 4286153349
-0.34163335 0.39175716 1.3850001 4287207837
-0.33752668 0.39006001 1.3790001 4288255896
-0.33490002 0.39006001 1.3790001 4287534740
-0.33227336 0.39006001 1.3790001 4286811791
-0.32964668 0.39006001 1.3790001 4288053131
-0.32701999 0.39006001 1.3790001 4289369250
-0.32439333 0.39006001 1.3790001 4289440441
-0.32176667 0.39006001 1.3790001 4289571767
-0.3205286 0.39175716 1.3850001 4289768630
-0.3178905 0.39175716 1.3850001 4290032575
-0.31639048 0.39317143 1.3900001 4289642953
-0.31509715 0.39486855 1.396 4289242282
-0.3124381 0.39486855 1.396 4286805388
-0.31222001 0.39798003 1.4070001 4284440702
-0.30954003 0.39798003 1.4070001 4284900465
-0.30816859 0.39967719 1.4130001 4285428607
-0.30677429 0.40137431 1.419 4287411597
-0.30535716 0.40307143 1.4250001 4289373070
-0.30264288 0.40307143 1.4250001 4286544271
-0.29992858 0.40307143 1.4250001 4283720318
-0.15874761 0.25485429 0.90100002 4281414967
-0.15703143 0.25485429 0.90100002 4281741115
-0.15566 0.25542 0.90300006 4282069313
-0.15394001 0.25542 0.90300006 4282728776
-0.15255715 0.25598571 0.90500003 4283386956
-0.15133335 0.2568343 0.90800005 4283717456
-0.14960383 0.2568343 0.90800005 4284045656
-0.14820001 0.25740001 0.91000003 4284242784
-0.14646667 0.25740001 0.91000003 4284439909
-0.20258573 0.41495144 1.4670001 4278785312
-0.19979145 0.41495144 1.4670001 4280162335
-0.19780286 0.4166486 1.473 4281548870
-0.19340858 0.41325429 1.4610001 4283722094
-0.19062573 0.41325429 1.4610001 4285948519
-0.18784288 0.41325429 1.4610001 4285619552
-0.18582001 0.41495144 1.4670001 4285290342
-0.18377429 0.4166486 1.473 4286543725
-0.18096858 0.4166486 1.473 4287789439
-0.17816286 0.4166486 1.473 4288707473
-0.17619048 0.41862857 1.48 4289694627
-0.17337143 0.41862857 1.48 4289832629
-0.17055239 0.41862857 1.48 4290022562
-0.16841334 0.42032573 1.4860001 4289027471
-0.16558285 0.42032573 1.4860001 4288123304
-0.16275239 0.42032573 1.4860001 4289898944
-0.075900003 0.40986001 1.4490001 4280432180
-0.073442861 0.41155714 1.455 4278455602
-0.070671432 0.41155714 1.455 4284961841
-0.067900002 0.41155714 1.455 4291478410
-0.065397151 0.41325429 1.4610001 4293195235
-0.062614284 0.41325429 1.4610001 4294898916
-0.059831429 0.41325429 1.4610001 4294570981
-0.057048574 0.41325429 1.4610001 4294242021
-0.054265719 0.41325429 1.4610001 4294306790
-0.05148286 0.41325429 1.4610001 4294438368
-0.048700001 0.41325429 1.4610001 4294570203
-0.045917142 0.41325429 1.4610001 4294766809
-0.043134291 0.41325429 1.4610001 4294701526
-0.040351432 0.41325429 1.4610001 4294635227
-0.037568573 0.41325429 1.4610001 4294634721
-0.034785714 0.41325429 1.4610001 4294637282
-0.032002859 0.41325429 1.4610001 4294570212
-0.029220002 0.41325429 1.4610001 4294504674
-0.026437143 0.41325429 1.4610001 4294439136
-0.023557143 0.41155714 1.455 4294373085
-0.020871429 0.41325429 1.4610001 4294307546
-0.018162858 0.41495144 1.4670001 4294241241
-0.015368572 0.41495144 1.4670001 4294108888
-0.012522858 0.41325429 1.4610001 4294043350
-0.0097399997 0.41325429 1.4610001 4294107860
-0.0069571431 0.41325429 1.4610001 4294176212
-0.0041914289 0.41495144 1.4670001 4294044629
-0.0013914286 0.41325429 1.4610001 4293913047
0.0013914286 0.41325429 1.4610001 4293648857
0.004174286 0.41325429 1.4610001 4293451728
0.0069857147 0.41495144 1.4670001 4293383368
0.0097800009 0.41495144 1.4670001 4293320899
0.012574286 0.41495144 1.4670001 4293187263
0.015305715 0.41325429 1.4610001 4293057731
0.018162858 0.41495144 1.4670001 4292857543
0.020957144 0.41495144 1.4670001 4292660158
0.023751432 0.41495144 1.4670001 4292462774
0.026545716 0.41495144 1.4670001 4292332209
0.029220002 0.41325429 1.4610001 4292264877
0.031871427 0.41155714 1.455 4292265131
0.034642857 0.41155714 1.455 4292331176
0.036797147 0.40476859 1.4310001 4292463016
0.03902572 0.39967719 1.4130001 4291405224
0.041392382 0.39656574 1.4020001 4290357676
0.043874286 0.39486855 1.396 4290489776
0.046333339 0.39317143 1.3900001 4290623659
0.048804764 0.39175716 1.3850001 4290228902
0.05122 0.39006001 1.3790001 4289833665
0.05365143 0.38864574 1.3740001 4292333276
0.056268577 0.38864574 1.3740001 4294835693
0.05862857 0.38694859 1.368 4294835966
0.061234292 0.38694859 1.368 4294901501
0.064120002 0.38864574 1.3740001 4294901501
0.066737145 0.38864574 1.3740001 4294901501
0.069354288 0.38864574 1.3740001 4294901502
0.071971431 0.38864574 1.3740001 4294901502
0.074588574 0.38864574 1.3740001 4294901502
0.077205718 0.38864574 1.3740001 4294901502
0.079822861 0.38864574 1.3740001 4294901502
0.082440004 0.38864574 1.3740001 4294901502
0.085057147 0.38864574 1.3740001 4294901502
0.08767429 0.38864574 1.3740001 4294901502
0.090291433 0.38864574 1.3740001 4294901502
0.092908576 0.38864574 1.3740001 4294901502
0.095873341 0.39006001 1.3790001 4294901502
0.098142862 0.38864574 1.3740001 4294901502
0.10076001 0.38864574 1.3740001 4294901502
0.10375334 0.39006001 1.3790001 4294901502
0.10638 0.39006001 1.3790001 4294901502
0.10948096 0.39175716 1.3850001 4294901502
0.11163334 0.39006001 1.3790001 4294901502
0.11426 0.39006001 1.3790001 4294901502
0.11688667 0.39006001 1.3790001 4294901502
0.12003335 0.39175716 1.3850001 4294901502
0.12267143 0.39175716 1.3850001 4294901502
0.13390477 0.41862857 1.48 4294901502
0.13607715 0.4166486 1.473 4294901502
0.13831715 0.41495144 1.4670001 4294901502
0.14053428 0.41325429 1.4610001 4294901502
0.14331715 0.41325429 1.4610001 4294901502
0.14610001 0.41325429 1.4610001 4294901502
0.14888287 0.41325429 1.4610001 4294901502
0.15166572 0.41325429 1.4610001 4294901502
0.15444857 0.41325429 1.4610001 4294901502
0.15723144 0.41325429 1.4610001 4294901502
0.1600143 0.41325429 1.4610001 4294901502
0.16279715 0.41325429 1.4610001 4294901502
0.16558 0.41325429 1.4610001 4294901502
0.16836286 0.41325429 1.4610001 4294901502
0.17114572 0.41325429 1.4610001 4294901502
0.17392859 0.41325429 1.4610001 4294901502
0.17671144 0.41325429 1.4610001 4294901502
0.17949429 0.41325429 1.4610001 4294901502
0.18227714 0.41325429 1.4610001 4294901502
0.18506001 0.41325429 1.4610001 4294901502
0.18784288 0.41325429 1.4610001 4294901502
0.19062573 0.41325429 1.4610001 4294901502
0.19340858 0.41325429 1.4610001 4294901502
0.19619143 0.41325429 1.4610001 4294901502
0.1989743 0.41325429 1.4610001 4294901502
0.20175716 0.41325429 1.4610001 4294901502
0.20454001 0.41325429 1.4610001 4294901502
0.20732287 0.41325429 1.4610001 4294901502
0.21010572 0.41325429 1.4610001 4294901502
0.21376288 0.41495144 1.4670001 4294901502
0.21655716 0.41495144 1.4670001 4294901502
0.2184543 0.41325429 1.4610001 4294901502
0.22123715 0.41325429 1.4610001 4294901502
0.22402 0.41325429 1.4610001 4294901502
0.22680287 0.41325429 1.4610001 4294901502
0.22864287 0.41155714 1.455 4294901502
0.23141429 0.41155714 1.455 4294901485
-0.3769629 0.18879716 0.66300005 4287269515
-0.37740001 0.18965143 0.66600001 4287005067
-0.37613145 0.18965143 0.66600001 4286675844
-0.37542573 0.18993621 0.66700006 4286477950
-0.3758381 0.19079047 0.67000002 4286346616
-0.37456191 0.19079047 0.67000002 4286412147
-0.37328571 0.19079047 0.67000002 4286543221
-0.37256476 0.19107524 0.671 4286346360
-0.37128666 0.19107524 0.671 4286215034
-0.37000856 0.19107524 0.671 4286084477
-0.37972099 0.19677049 0.69100004 4285952378
-0.37785718 0.19648573 0.69000006 4285755512
-0.37654287 0.19648573 0.69000006 4285622640
-0.37577242 0.19677049 0.69100004 4285491305
-0.37554002 0.19734 0.69300002 4285360477
-0.37421998 0.19734 0.69300002 4285425234
-0.37343812 0.19762476 0.69400001 4285424984
-0.37211621 0.19762476 0.69400001 4285556574
-0.3707943 0.19762476 0.69400001 4285622111
-0.36894003 0.19734 0.69300002 4285359968
-0.36761999 0.19734 0.69300002 4285098336
-0.45353717 0.32519811 1.1420001 4281543727
-0.45136192 0.32519811 1.1420001 4280228137
-0.44918668 0.32519811 1.1420001 4278977328
-0.44544572 0.32405904 1.138 4278980151
-0.4432781 0.32405904 1.138 4278981936
-0.44111049 0.32405904 1.138 4279309866
-0.43894288 0.32405904 1.138 4279636767
-0.43677524 0.32405904 1.138 4279571733
-0.43460763 0.32405904 1.138 4279571742
-0.43244001 0.32405904 1.138 4279833639
-0.4302724 0.32405904 1.138 4280095008
-0.42960954 0.32519811 1.1420001 4279701530
-0.4274343 0.32519811 1.1420001 4279308320
-0.42525908 0.32519811 1.1420001 4279373863
-0.42308384 0.32519811 1.1420001 4279440421
-0.4209086 0.32519811 1.1420001 4279768612
-0.41726667 0.32405904 1.138 4280097063
-0.41509905 0.32405904 1.138 4280492586
-0.41293141 0.32405904 1.138 4280890667
-0.4107638 0.32405904 1.138 4280952364
-0.40859619 0.32405904 1.138 4281082156
-0.40642858 0.32405904 1.138 4280953645
-0.40568194 0.32519811 1.1420001 4280759594
-0.4035067 0.32519811 1.1420001 4280490791
-0.40133145 0.32519811 1.1420001 4280227114
-0.40055427 0.32633716 1.146 4279965485
-0.39837143 0.32633716 1.146 4279703852
-0.39618859 0.32633716 1.146 4279637548
-0.39400575 0.32633716 1.146 4279572268
-0.39182284 0.32633716 1.146 4279505965
-0.39100003 0.32747623 1.1500001 4279439911
-0.38880956 0.32747623 1.1500001 4279308321
-0.39530003 0.40066001 1.4070001 4280886590
-0.39262 0.40066001 1.4070001 4280689466
-0.3916029 0.40236861 1.4130001 4280754998
-0.39056286 0.40407714 1.419 4280820022
-0.38622004 0.40236861 1.4130001 4280688694
-0.38352859 0.40236861 1.4130001 4280559161
-0.37922004 0.40066001 1.4070001 4280756029
-0.37654001 0.40066001 1.4070001 4281020224
-0.37386 0.40066001 1.4070001 4281478979
-0.37118 0.40066001 1.4070001 4281939011
-0.36850002 0.40066001 1.4070001 4282268996
-0.36582002 0.40066001 1.4070001 4282664541
-0.36184955 0.3992362 1.4020001 4283587958
-0.36046001 0.40066001 1.4070001 4284508274
-0.35345718 0.3958191 1.3900001 4284902255
-0.35080954 0.3958191 1.3900001 4285230701
-0.34690955 0.39439526 1.3850001 4286020971
-0.34427145 0.39439526 1.3850001 4286811267
-0.34015334 0.39268667 1.3790001 4287273372
-0.33752668 0.39268667 1.3790001 4287731866
-0.33490002 0.39268667 1.3790001 4287270552
-0.33106858 0.39126286 1.3740001 4286809483
-0.32845145 0.39126286 1.3740001 4288322174
-0.32583427 0.39126286 1.3740001 4289838490
-0.32321715 0.39126286 1.3740001 4289703863
-0.3206 0.39126286 1.3740001 4289506486
-0.31914002 0.39268667 1.3790001 4289834934
-0.3178905 0.39439526 1.3850001 4290165181
-0.31525239 0.39439526 1.3850001 4288654789
-0.31374288 0.3958191 1.3900001 4287136923
-0.31378096 0.3992362 1.4020001 4286148465
-0.31222001 0.40066001 1.4070001 4285097839
-0.31086001 0.40236861 1.4130001 4286083182
-0.30816859 0.40236861 1.4130001 4287134360
-0.30547717 0.40236861 1.4130001 4287410371
-0.30278572 0.40236861 1.4130001 4287667869
-0.30009431 0.40236861 1.4130001 4285754743
-0.29992858 0.40578571 1.4250001 4283848821
-0.16046381 0.25657049 0.90100002 4281282871
-0.15874761 0.25657049 0.90100002 4281480767
-0.15703143 0.25657049 0.90100002 4281937735
-0.15531525 0.25657049 0.90100002 4282331975
-0.15359905 0.25657049 0.90100002 4282992199
-0.15222001 0.25714001 0.90300006 4283585360
-0.15050001 0.25714001 0.90300006 4283980633
-0.14910953 0.25770953 0.90500003 4284374879
-0.1478743 0.25856382 0.90800005 4284440422
-0.14614478 0.25856382 0.90800005 4284506217
-0.20341429 0.41945428 1.473 4278518286
-0.19979145 0.41774574 1.4670001 4279438609
-0.19699715 0.41774574 1.4670001 4280430400
-0.19420289 0.41774574 1.4670001 4283129967
-0.19140859 0.41774574 1.4670001 4285883502
-0.18784288 0.41603717 1.4610001 4285487981
-0.18506001 0.41603717 1.4610001 4285093223
-0.18302573 0.41774574 1.4670001 4286541922
-0.18023144 0.41774574 1.4670001 4287920759
-0.17743716 0.41774574 1.4670001 4288445324
-0.17535715 0.41945428 1.473 4288972959
-0.17337143 0.42144763 1.48 4289629363
-0.17055239 0.42144763 1.48 4290285721
-0.16841334 0.4231562 1.4860001 4288896639
-0.16558285 0.4231562 1.4860001 4287594396
-0.16275239 0.4231562 1.4860001 4289504186
-0.16132095 0.4268581 1.4990001 4291343807
-0.075900003 0.41262004 1.4490001 4281015083
-0.073140003 0.41262004 1.4490001 4280025414
-0.070671432 0.41432858 1.455 4286615649
-0.067900002 0.41432858 1.455 4293195432
-0.065128572 0.41432858 1.455 4293916144
-0.062357143 0.41432858 1.455 4294636774
-0.059585717 0.41432858 1.455 4294439388
-0.056814287 0.41432858 1.455 4294176739
-0.054265719 0.41603717 1.4610001 4294307307
-0.051271431 0.41432858 1.455 4294442722
-0.048500001 0.41432858 1.455 4294506969
-0.045728575 0.41432858 1.455 4294636762
-0.042957142 0.41432858 1.455 4294571484
-0.040185712 0.41432858 1.455 4294571998
-0.037414286 0.41432858 1.455 4294637280
-0.034642857 0.41432858 1.455 4294637283
-0.031871427 0.41432858 1.455 4294570214
-0.029100001 0.41432858 1.455 4294504676
-0.026328571 0.41432858 1.455 4294439138
-0.023557143 0.41432858 1.455 4294373342
-0.020785715 0.41432858 1.455 4294307034
-0.018088574 0.41603717 1.4610001 4294241240
-0.015305715 0.41603717 1.4610001 4294174934
-0.012522858 0.41603717 1.4610001 4294109143
-0.0097399997 0.41603717 1.4610001 4294174936
-0.0069571431 0.41603717 1.4610001 4294240728
-0.004174286 0.41603717 1.4610001 4294110169
-0.0013914286 0.41603717 1.4610001 4293979355
0.0013857143 0.41432858 1.455 4293780445
0.0041571432 0.41432858 1.455 4293583057
0.0069571431 0.41603717 1.4610001 4293451974
0.0097399997 0.41603717 1.4610001 4293320898
0.012522858 0.41603717 1.4610001 4293188542
0.015305715 0.41603717 1.4610001 4293058499
0.018088574 0.41603717 1.4610001 4292989384
0.020871429 0.41603717 1.4610001 4292858555
0.023654288 0.41603717 1.4610001 4292528558
0.026437143 0.41603717 1.4610001 4292135599
0.029100001 0.41432858 1.455 4292002481
0.031871427 0.41432858 1.455 4291872175
0.034214284 0.40920287 1.437 4291150253
0.036797147 0.40749434 1.4310001 4290428578
0.039191429 0.40407714 1.419 4289834903
0.041540001 0.40066001 1.4070001 4289241507
0.043874286 0.39752764 1.396 4289899440
0.046333339 0.3958191 1.3900001 4290558635
0.048804764 0.39439526 1.3850001 4290098343
0.05122 0.39268667 1.3790001 4289703363
0.05365143 0.39126286 1.3740001 4292267231
0.056268577 0.39126286 1.3740001 4294835950
0.058885716 0.39126286 1.3740001 4294835966
0.061502859 0.39126286 1.3740001 4294901501
0.064120002 0.39126286 1.3740001 4294901501
0.066737145 0.39126286 1.3740001 4294901501
0.069354288 0.39126286 1.3740001 4294901502
0.071971431 0.39126286 1.3740001 4294901502
0.074588574 0.39126286 1.3740001 4294901502
0.077205718 0.39126286 1.3740001 4294901502
0.079822861 0.39126286 1.3740001 4294901502
0.082440004 0.39126286 1.3740001 4294901502
0.085057147 0.39126286 1.3740001 4294901502
0.08767429 0.39126286 1.3740001 4294901502
0.090291433 0.39126286 1.3740001 4294901502
0.092908576 0.39126286 1.3740001 4294901502
0.095873341 0.39268667 1.3790001 4294901502
0.098499998 0.39268667 1.3790001 4294901502
0.10112667 0.39268667 1.3790001 4294901502
0.10375334 0.39268667 1.3790001 4294901502
0.10638 0.39268667 1.3790001 4294901502
0.10948096 0.39439526 1.3850001 4294901502
0.11211905 0.39439526 1.3850001 4294901502
0.11475715 0.39439526 1.3850001 4294901502
0.11739524 0.39439526 1.3850001 4294901502
0.12003335 0.39439526 1.3850001 4294901502
0.12311429 0.3958191 1.3900001 4294901502
0.13327143 0.41945428 1.473 4294901502
0.13552287 0.41774574 1.4670001 4294901502
0.13831715 0.41774574 1.4670001 4294901502
0.14053428 0.41603717 1.4610001 4294901502
0.14331715 0.41603717 1.4610001 4294901502
0.14610001 0.41603717 1.4610001 4294901502
0.14888287 0.41603717 1.4610001 4294901502
0.15104286 0.41432858 1.455 4294901502
0.15381429 0.41432858 1.455 4294901502
0.15658572 0.41432858 1.455 4294901502
0.1600143 0.41603717 1.4610001 4294901502
0.16279715 0.41603717 1.4610001 4294901502
0.16558 0.41603717 1.4610001 4294901502
0.16836286 0.41603717 1.4610001 4294901502
0.17114572 0.41603717 1.4610001 4294901502
0.17392859 0.41603717 1.4610001 4294901502
0.17671144 0.41603717 1.4610001 4294901502
0.17949429 0.41603717 1.4610001 4294901502
0.18227714 0.41603717 1.4610001 4294901502
0.18506001 0.41603717 1.4610001 4294901502
0.18784288 0.41603717 1.4610001 4294901502
0.18984286 0.41432858 1.455 4294901502
0.19261429 0.41432858 1.455 4294901502
0.19538571 0.41432858 1.455 4294901502
0.1989743 0.41603717 1.4610001 4294901502
0.20092857 0.41432858 1.455 4294901502
0.20454001 0.41603717 1.4610001 4294901502
0.20732287 0.41603717 1.4610001 4294901502
0.21010572 0.41603717 1.4610001 4294901502
0.21288858 0.41603717 1.4610001 4294901502
0.21567145 0.41603717 1.4610001 4294901502
0.2184543 0.41603717 1.4610001 4294901502
0.22032857 0.41432858 1.455 4294901502
0.22310001 0.41432858 1.455 4294901502
0.22587143 0.41432858 1.455 4294901502
0.22770002 0.41262004 1.4490001 4294901502
0.23046002 0.41262004 1.4490001 4294901502
0.23322003 0.41262004 1.4490001 4294901502
-0.37740001 0.19092 0.66600001 4287071624
-0.37613145 0.19092 0.66600001 4286807683
-0.3771143 0.19206667 0.67000002 4286542975
-0.3758381 0.19206667 0.67000002 4286346360
-0.37456191 0.19206667 0.67000002 4286346866
-0.37328571 0.19206667 0.67000002 4286346358
-0.37256476 0.19235334 0.671 4286215291
-0.37128666 0.19235334 0.671 4286149761
-0.37000856 0.19235334 0.671 4286018951
-0.37972099 0.19808668 0.69100004 4285887361
-0.37840477 0.19808668 0.69100004 4285755516
-0.37708858 0.19808668 0.69100004 4285688180
-0.37685999 0.19866 0.69300002 4285556844
-0.37608191 0.19894665 0.69400001 4285491554
-0.37476 0.19894665 0.69400001 4285490521
-0.37343812 0.19894665 0.69400001 4285490526
-0.37211621 0.19894665 0.69400001 4285687651
-0.3707943 0.19894665 0.69400001 4285884001
-0.36947238 0.19894665 0.69400001 4285425248
-0.36815047 0.19894665 0.69400001 4285032799
-0.45353717 0.32737336 1.1420001 4278782253
-0.45136192 0.32737336 1.1420001 4279109164
-0.44918668 0.32737336 1.1420001 4279438384
-0.44701144 0.32737336 1.1420001 4279505717
-0.44483623 0.32737336 1.1420001 4279571765
-0.44266099 0.32737336 1.1420001 4279572277
-0.43894288 0.32622665 1.138 4279571754
-0.43677524 0.32622665 1.138 4279506207
-0.43460763 0.32622665 1.138 4279506465
-0.43244001 0.32622665 1.138 4279506723
-0.4302724 0.32622665 1.138 4279570202
-0.43111429 0.32852 1.146 4279372818
-0.42893144 0.32852 1.146 4279176729
-0.42674857 0.32852 1.146 4279242784
-0.42308384 0.32737336 1.1420001 4279373859
-0.4209086 0.32737336 1.1420001 4279570470
-0.41873336 0.32737336 1.1420001 4279768101
-0.41509905 0.32622665 1.138 4280099365
-0.41293141 0.32622665 1.138 4280492075
-0.4107638 0.32622665 1.138 4280294961
-0.40859619 0.32622665 1.138 4280162863
-0.40642858 0.32622665 1.138 4280161838
-0.40426093 0.32622665 1.138 4280160811
-0.4035067 0.32737336 1.1420001 4280028969
-0.40133145 0.32737336 1.1420001 4279898667
-0.40055427 0.32852 1.146 4279702830
-0.39976192 0.32966667 1.1500001 4279572017
-0.39618859 0.32852 1.146 4279572277
-0.39778766 0.33167335 1.1570001 4279571761
-0.39558384 0.33167335 1.1570001 4279570477
-0.39389527 0.40190667 1.4020001 4280819261
-0.39262 0.40334001 1.4070001 4280688953
-0.38993999 0.40334001 1.4070001 4280689461
-0.38891146 0.40506002 1.4130001 4280754487
-0.38622004 0.40506002 1.4130001 4280557882
-0.38352859 0.40506002 1.4130001 4280362301
-0.37922004 0.40334001 1.4070001 4280691264
-0.37654001 0.40334001 1.4070001 4281085766
-0.37386 0.40334001 1.4070001 4281610573
-0.37118 0.40334001 1.4070001 4282135373
-0.36850002 0.40334001 1.4070001 4282666061
