# .PCD v0.7 - Point Cloud Data file format
VERSION 0.7
FIELDS x y z rgba
SIZE 4 4 4 4
TYPE F F F U
COUNT 1 1 1 1
WIDTH 1113
HEIGHT 1
VIEWPOINT 0 0 0 1 0 0 0
POINTS 1113
DATA ascii
-0.47964004 0.06634476 1.1420001 4285165176
-0.47913715 0.066577144 1.146 4285230212
-0.4786191 0.066809535 1.1500001 4285298570
-0.4809857 0.067448571 1.161 4286677904
-0.48207334 0.067913331 1.169 4288058773
-0.48148862 0.068145722 1.1730001 4288849819
-0.4825229 0.068610482 1.1810001 4289637029
-0.48190001 0.068842858 1.1850001 4289768880
-0.48449999 0.069539994 1.197 4289966255
-0.4842343 0.069830477 1.202 4289246382
-0.48354861 0.070062861 1.2060001 4288522158
-0.48125145 0.070062861 1.2060001 4287339439
-0.48054287 0.070295244 1.21 4286157222
-0.48179528 0.070818104 1.2190001 4285958301
-0.48104668 0.07105048 1.223 4285759375
-0.47871715 0.07105048 1.223 4285691521
-0.47989336 0.071573339 1.2320001 4285690492
-0.48064759 0.072038092 1.24 4285493623
-0.4802143 0.072328568 1.245 4285362038
-0.48129717 0.072851434 1.2540001 4285165428
-0.48081812 0.07314191 1.2590001 4284968564
-0.47994 0.073374286 1.263 4284837237
-0.47753429 0.073374286 1.263 4284771187
-0.47851431 0.073897146 1.2720001 4284639601
-0.47796288 0.074187621 1.2770001 4284574062
-0.48446766 0.075581908 1.3010001 4284574060
-0.48569432 0.076162867 1.3110001 4284639340
-0.48135433 0.075872391 1.3060001 4284574317
-0.48070005 0.076162867 1.3110001 4284574060
-0.48002669 0.076453343 1.3160001 4284573036
-0.47933429 0.076743819 1.3210001 4284572781
-0.48223239 0.077615239 1.3360001 4284703855
-0.48363715 0.07825429 1.3470001 4284900459
-0.48285717 0.078544766 1.3520001 4284703847
-0.48241335 0.078893334 1.358 4284573287
-0.47982669 0.078893334 1.358 4284508519
-0.48286286 0.079822861 1.3740001 4284507755
-0.48409051 0.080461912 1.3850001 4284704112
-0.48527619 0.081100948 1.396 4284900972
-0.48469144 0.081449524 1.4020001 4284639080
-0.48580289 0.082088582 1.4130001 4284442473
-0.4872143 0.082785718 1.4250001 4284376938
-0.49061999 0.083831429 1.4430001 4284311143
-0.48787144 0.083831429 1.4430001 4284114277
-0.48714003 0.084180005 1.4490001 4283981153
-0.48438004 0.084180005 1.4490001 4283716445
-0.48959717 0.085574292 1.473 4283516238
-0.49538383 0.087084763 1.4990001 4282726208
-0.49252859 0.087084763 1.4990001 4282006344
-0.25272667 0.067913331 1.169 4279771929
-0.25049999 0.067913331 1.169 4279703830
-0.24827334 0.067913331 1.169 4279506194
-0.24688859 0.068145722 1.1730001 4279307791
-0.24382001 0.067913331 1.169 4278979341
-0.24159333 0.067913331 1.169 4278652428
-0.23936667 0.067913331 1.169 4278980108
-0.23714 0.067913331 1.169 4279308051
-0.48592383 0.06312 1.052 4285954951
-0.48392001 0.06312 1.052 4285823882
-0.4846648 0.063480005 1.0580001 4285692810
-0.48401815 0.063660011 1.0610001 4285692298
-0.48199719 0.063660011 1.0610001 4285691524
-0.47997621 0.063660011 1.0610001 4285560447
-0.48110861 0.06408 1.0680001 4285429375
-0.48042002 0.064260006 1.0710001 4285429119
-0.48150671 0.064680003 1.0780001 4285495160
-0.48078766 0.064860001 1.0810001 4285429617
-0.48050001 0.065099999 1.085 4285364086
-0.47975621 0.065280005 1.0880001 4285429372
-0.47768381 0.065280005 1.0880001 4285494647
-0.47998288 0.065880001 1.098 4285363058
-0.48093811 0.066299997 1.105 4285231736
-0.48230001 0.066780001 1.113 4285165694
-0.48147431 0.066960007 1.1160001 4285035640
-0.48407337 0.067620009 1.1270001 4285100658
-0.48192671 0.067620009 1.1270001 4285165932
-0.48148286 0.067860007 1.131 4285756519
-0.48060003 0.068039998 1.1340001 4286412641
-0.4801276 0.068279997 1.138 4286610524
-0.47964004 0.068520002 1.1420001 4286873968
-0.47913715 0.06876 1.146 4287073924
-0.4786191 0.069000006 1.1500001 4287339670
-0.4809857 0.069660001 1.161 4287999400
-0.48042384 0.069900006 1.1650001 4288659384
-0.48148862 0.07038001 1.1730001 4288325320
-0.4825229 0.070860006 1.1810001 4288005578
-0.48190001 0.071100004 1.1850001 4287935693
-0.48449999 0.071820006 1.197 4287865786
-0.4842343 0.072119996 1.202 4287334312
-0.48354861 0.072360002 1.2060001 4286868641
-0.48125145 0.072360002 1.2060001 4286412442
-0.48054287 0.0726 1.21 4286022029
-0.47981909 0.072840005 1.2140001 4285888897
-0.47947338 0.073140003 1.2190001 4285755779
-0.47871715 0.073380001 1.223 4285691269
-0.47989336 0.073920004 1.2320001 4285625471
-0.4825857 0.074699998 1.245 4285428345
-0.48175716 0.074940003 1.2490001 4285230713
-0.4832162 0.075539999 1.2590001 4285033593
-0.48081812 0.075539999 1.2590001 4284902006
-0.48184001 0.076080002 1.268 4284770676
-0.47942474 0.076080002 1.268 4284704369
-0.48039526 0.076620005 1.2770001 4284573550
-0.48170573 0.07722 1.2870001 4284442732
-0.48446766 0.078060001 1.3010001 4284442731
-0.48569432 0.078660011 1.3110001 4284508274
-0.48135433 0.078360006 1.3060001 4284443002
-0.48070005 0.078660011 1.3110001 4284377970
-0.48002669 0.078960001 1.3160001 4284442219
-0.4811486 0.079560012 1.3260001 4284572777
-0.48223239 0.080160007 1.3360001 4284638312
-0.48184189 0.080519997 1.342 4284703335
-0.48285717 0.081120007 1.3520001 4284638310
-0.48241335 0.081479996 1.358 4284573288
-0.47982669 0.081479996 1.358 4284507498
-0.48075432 0.082080007 1.368 4284441969
-0.48199335 0.082740009 1.3790001 4284441977
-0.48319051 0.083400004 1.3900001 4284507506
-0.48261714 0.083760001 1.396 4284310636
-0.48580289 0.08478 1.4130001 4284112747
-0.4872143 0.085500002 1.4250001 4284048235
-0.48654002 0.085860007 1.4310001 4283918175
-0.49598575 0.088020004 1.4670001 4283457107
-0.49319148 0.088020004 1.4670001 4282996303
-0.49674857 0.089160003 1.4860001 4283058508
-0.49391809 0.089160003 1.4860001 4283120190
-0.49538383 0.089940004 1.4990001 4282858800
-0.25272667 0.070140004 1.169 4279638311
-0.25049999 0.070140004 1.169 4279703582
-0.24827334 0.070140004 1.169 4279440917
-0.24688859 0.07038001 1.1730001 4279241745
-0.24298574 0.069900006 1.1650001 4279045134
-0.24159333 0.070140004 1.169 4278849801
-0.23936667 0.070140004 1.169 4278980101
-0.23714 0.070140004 1.169 4279176718
-0.48607242 0.064876191 1.0480001 4286217349
-0.48592383 0.065123811 1.052 4286217607
-0.48208004 0.064876191 1.0480001 4286021258
-0.48191622 0.065123811 1.052 4285889161
-0.48264956 0.065495245 1.0580001 4285757832
-0.48063433 0.065495245 1.0580001 4285692032
-0.4786191 0.065495245 1.0580001 4285495416
-0.47795528 0.065680958 1.0610001 4285363580
-0.47907433 0.066114292 1.0680001 4285428864
-0.47972 0.06648571 1.074 4285560445
-0.47945336 0.066733338 1.0780001 4285429370
-0.48050001 0.067166664 1.085 4285298556
-0.47975621 0.067352384 1.0880001 4285429886
-0.47768381 0.067352384 1.0880001 4285560441
-0.4769229 0.067538105 1.0910001 4285363061
-0.48093811 0.068404764 1.105 4285231481
-0.48230001 0.068900004 1.113 4285100158
-0.48147431 0.069085717 1.1160001 4284969855
-0.48235527 0.06951905 1.123 4284967808
-0.48192671 0.06976667 1.1270001 4284970117
-0.48148286 0.070014283 1.131 4286348939
-0.48060003 0.070200004 1.1340001 4287728782
-0.47844002 0.070200004 1.1340001 4288191121
-0.47964004 0.070695244 1.1420001 4288655769
-0.4774648 0.070695244 1.1420001 4288989601
-0.47695428 0.070942864 1.146 4289380511
-0.48264289 0.07211905 1.1650001 4289312926
-0.48207334 0.07236667 1.169 4289244841
-0.48148862 0.07261429 1.1730001 4287800756
-0.48088858 0.07286191 1.177 4286354606
-0.48190001 0.073357143 1.1850001 4286022568
-0.48449999 0.074100003 1.197 4285758621
-0.4842343 0.07440953 1.202 4285494675
-0.48354861 0.07465715 1.2060001 4285298573
-0.48125145 0.07465715 1.2060001 4285561224
-0.48054287 0.074904762 1.21 4285888388
-0.47823811 0.074904762 1.21 4285822336
-0.4775067 0.075152382 1.2140001 4285822080
-0.47715145 0.075461909 1.2190001 4285691008
-0.47989336 0.076266676 1.2320001 4285559675
-0.4825857 0.077071428 1.245 4285363062
-0.48175716 0.077319048 1.2490001 4285165429
-0.4832162 0.077938102 1.2590001 4284966516
-0.48234573 0.078185715 1.263 4284836467
-0.48184001 0.078495234 1.268 4284705139
-0.48093718 0.078742862 1.2720001 4284639344
-0.4822762 0.079361908 1.2820001 4284508013
-0.48320284 0.079919048 1.291 4284376685
-0.48446766 0.080538101 1.3010001 4284376685
-0.48384196 0.080847628 1.3060001 4284376944
-0.48135433 0.080847628 1.3060001 4284246132
-0.48070005 0.081157148 1.3110001 4284180334
-0.48002669 0.081466675 1.3160001 4284376936
-0.4811486 0.082085714 1.3260001 4284572775
-0.48042765 0.082395241 1.3310001 4284573030
-0.48184189 0.083076194 1.342 4284573028
-0.48285717 0.08369524 1.3520001 4284573027
-0.48241335 0.084066667 1.358 4284573283
-0.48159334 0.084376194 1.363 4284442212
-0.47899717 0.084376194 1.363 4284376681
-0.48793527 0.086419053 1.396 4284245871
-0.48527619 0.086419053 1.396 4284179814
-0.48469144 0.08679048 1.4020001 4283982430
-0.48580289 0.087471433 1.4130001 4283849302
-0.4872143 0.088214293 1.4250001 4283716943
-0.48654002 0.088585719 1.4310001 4283582547
-0.49598575 0.090814292 1.4670001 4282792791
-0.49319148 0.090814292 1.4670001 4282006867
-0.49474284 0.091619052 1.48 4282335311
-0.49391809 0.091990478 1.4860001 4282729796
-0.49538383 0.092795245 1.4990001 4283058745
-0.25272667 0.07236667 1.169 4279509036
-0.25049999 0.07236667 1.169 4279770143
-0.24827334 0.07236667 1.169 4279441171
-0.24604666 0.07236667 1.169 4279176976
-0.24298574 0.07211905 1.1650001 4279111182
-0.24076669 0.07211905 1.1650001 4279111178
-0.23854764 0.07211905 1.1650001 4279045639
-0.23470572 0.07162381 1.1570001 4279045651
-0.2316981 0.07137619 1.153 4279767327
-0.2295019 0.07137619 1.153 4280556067
-0.48607242 0.066872381 1.0480001 4286087045
-0.48269051 0.06668096 1.0450001 4286086791
-0.48208004 0.066872381 1.0480001 4286020746
-0.48008385 0.066872381 1.0480001 4285888904
-0.4799124 0.067127623 1.052 4285757830
-0.47927147 0.06731905 1.0550001 4285692027
-0.47726193 0.06731905 1.0550001 4285363825
-0.47660387 0.067510486 1.0580001 4285101177
-0.47593433 0.067701906 1.0610001 4285232513
-0.47525331 0.067893334 1.064 4285364610
-0.47767431 0.068531431 1.074 4285167747
-0.47872859 0.068978101 1.0810001 4284970882
-0.47975621 0.069424763 1.0880001 4285036417
-0.47768381 0.069424763 1.0880001 4285101948
-0.47867143 0.069871433 1.095 4285690488
-0.48093811 0.070509523 1.105 4286278779
-0.48056668 0.070764773 1.1090001 4286410622
-0.48147431 0.071211427 1.1160001 4286542470
-0.48106664 0.071466669 1.12 4286875535
-0.48021621 0.071658097 1.123 4287208607
-0.47978005 0.071913332 1.1270001 4287735471
-0.47932857 0.072168574 1.131 4288262586
-0.47844002 0.072360002 1.1340001 4288390342
-0.47964004 0.072870485 1.1420001 4288596674
-0.4774648 0.072870485 1.1420001 4288003774
-0.4786191 0.073380955 1.1500001 4287410857
-0.48264289 0.074338101 1.1650001 4287406228
-0.48207334 0.074593335 1.169 4287401626
-0.48148862 0.074848577 1.1730001 4286739616
-0.4825229 0.075359054 1.1810001 4286143377
-0.48190001 0.075614288 1.1850001 4286020483
-0.48652381 0.076699048 1.202 4285887361
-0.48584574 0.076954298 1.2060001 4285757567
-0.48354861 0.076954298 1.2060001 4285561722
-0.48284763 0.077209525 1.21 4285692278
-0.48054287 0.077209525 1.21 4285756027
-0.47823811 0.077209525 1.21 4285757312
-0.47593334 0.077209525 1.21 4285692286
-0.47715145 0.077783816 1.2190001 4285560700
-0.47989336 0.078613341 1.2320001 4285363832
-0.4825857 0.079442859 1.245 4285231988
-0.48175716 0.079698101 1.2490001 4285165681
-0.4832162 0.080336191 1.2590001 4284967791
-0.48234573 0.080591433 1.263 4284836465
-0.48336002 0.081165716 1.2720001 4284770675
-0.48282763 0.081484765 1.2770001 4284705135
-0.4822762 0.081803814 1.2820001 4284442220
-0.48320284 0.082378097 1.291 4284245357
-0.48446766 0.083016194 1.3010001 4284376175
-0.48384196 0.083335243 1.3060001 4284572782
-0.48319718 0.083654292 1.3110001 4284376174
-0.48070005 0.083654292 1.3110001 4284245097
-0.48002669 0.083973333 1.3160001 4284376165
-0.4811486 0.084611431 1.3260001 4284507237
-0.48042765 0.084930487 1.3310001 4284507237
-0.48184189 0.085632384 1.342 4284507234
-0.48285717 0.086270481 1.3520001 4284441696
-0.48241335 0.086653329 1.358 4284376671
-0.48336002 0.087291434 1.368 4284244831
-0.48075432 0.087291434 1.368 4284112994
-0.48583812 0.088695243 1.3900001 4284047973
-0.48527619 0.089078099 1.396 4283983194
-0.48469144 0.089460954 1.4020001 4283653456
-0.48786575 0.090545721 1.419 4283323713
-0.48926577 0.091311432 1.4310001 4283387955
-0.49266002 0.092460006 1.4490001 4283385927
-0.49192858 0.092842855 1.455 4283318620
-0.49319148 0.093608581 1.4670001 4283186007
-0.49474284 0.094438098 1.48 4283583059
-0.49591237 0.095203809 1.4920001 4284045643
-0.49538383 0.095650479 1.4990001 4284508483
-0.25272667 0.074593335 1.169 4279836721
-0.25049999 0.074593335 1.169 4279836961
-0.24827334 0.074593335 1.169 4279506962
-0.24604666 0.074593335 1.169 4279177744
-0.24298574 0.074338101 1.1650001 4279046670
-0.24076669 0.074338101 1.1650001 4278915851
-0.23772858 0.074082859 1.161 4278783497
-0.23551714 0.074082859 1.161 4278717976
-0.2316981 0.073572382 1.153 4279504935
-0.2295019 0.073572382 1.153 4280359465
-0.48468098 0.068671428 1.0450001 4286021766
-0.48269051 0.068671428 1.0450001 4286020999
-0.48070005 0.068671428 1.0450001 4285954697
-0.48008385 0.068868577 1.0480001 4285954438
-0.4799124 0.069131434 1.052 4285823363
-0.47790858 0.069131434 1.052 4285691774
-0.47726193 0.069328576 1.0550001 4285232249
-0.47660387 0.069525719 1.0580001 4284839291
-0.47728002 0.069919996 1.064 4284970878
-0.47704002 0.070182867 1.0680001 4285167742
-0.47945336 0.070840001 1.0780001 4284904319
-0.48050001 0.071300007 1.085 4284706688
-0.47975621 0.07149715 1.0880001 4284640386
-0.47900099 0.071694292 1.0910001 4284641153
-0.47998288 0.072154284 1.098 4286018177
-0.48093811 0.07261429 1.105 4287396750
-0.48056668 0.072877146 1.1090001 4287792539
-0.48147431 0.073337145 1.1160001 4288192160
-0.48106664 0.073600002 1.12 4288788645
-0.48021621 0.073797144 1.123 4289444519
-0.47978005 0.074060008 1.1270001 4289117353
-0.47932857 0.074322857 1.131 4288853421
-0.47844002 0.074519999 1.1340001 4288655281
-0.47795999 0.074782856 1.138 4288518050
-0.4774648 0.07504572 1.1420001 4287004820
-0.4786191 0.075571433 1.1500001 4285496718
-0.48264289 0.076557145 1.1650001 4285495944
-0.48207334 0.076820001 1.169 4285559951
-0.48148862 0.077082857 1.1730001 4285755030
-0.48088858 0.077345721 1.177 4285952397
-0.48027337 0.077608578 1.1810001 4286018692
-0.48449999 0.078660004 1.197 4286085250
-0.48584574 0.079251431 1.2060001 4285955200
-0.48354861 0.079251431 1.2060001 4285889405
-0.48284763 0.079514287 1.21 4285757818
-0.48054287 0.079514287 1.21 4285692285
-0.47981909 0.079777151 1.2140001 4285626753
-0.4775067 0.079777151 1.2140001 4285626495
-0.47715145 0.080105722 1.2190001 4285429885
-0.47794574 0.080631435 1.2270001 4285232248
-0.48413619 0.082077146 1.2490001 4285166452
-0.4856143 0.082734287 1.2590001 4285165170
-0.48475143 0.082997143 1.263 4284968048
-0.48425525 0.083325714 1.268 4284836208
-0.48336002 0.083588578 1.2720001 4284770416
-0.48282763 0.083917148 1.2770001 4284770158
-0.4822762 0.084245719 1.2820001 4284442220
-0.48320284 0.084837146 1.291 4284179568
-0.4826057 0.085165717 1.296 4284441716
-0.48384196 0.085822865 1.3060001 4284769136
-0.48319718 0.086151436 1.3110001 4284506476
-0.48253337 0.086480007 1.3160001 4284310120
-0.4818505 0.086808577 1.3210001 4284376420
-0.4811486 0.087137148 1.3260001 4284507240
-0.48042765 0.087465718 1.3310001 4284440941
-0.48363715 0.088517152 1.3470001 4284441189
-0.48285717 0.088845722 1.3520001 4284310365
-0.48418954 0.089568578 1.363 4284244316
-0.48548001 0.090291433 1.3740001 4284047196
-0.48848575 0.091342859 1.3900001 4283915100
-0.48793527 0.091737144 1.396 4283847773
-0.48736191 0.092131436 1.4020001 4283780440
-0.48642004 0.092460006 1.4070001 4283320147
-0.48786575 0.093248576 1.419 4282861900
-0.48926577 0.094037145 1.4310001 4283059270
-0.49266002 0.095220007 1.4490001 4283257680
-0.49192858 0.095614292 1.455 4283849563
-0.49319148 0.096402861 1.4670001 4284440161
-0.49474284 0.097257145 1.48 4284899942
-0.49591237 0.098045722 1.4920001 4285362273
-0.49538383 0.09850572 1.4990001 4286021469
-0.25495335 0.076820001 1.169 4280427819
-0.25272667 0.076820001 1.169 4280164654
-0.25049999 0.076820001 1.169 4279902240
-0.24827334 0.076820001 1.169 4279572753
-0.24604666 0.076820001 1.169 4279243534
-0.24298574 0.076557145 1.1650001 4278979595
-0.24076669 0.076557145 1.1650001 4278783241
-0.23854764 0.076557145 1.1650001 4278586887
-0.23632859 0.076557145 1.1650001 4278390293
-0.48468098 0.07066191 1.0450001 4285889672
-0.48269051 0.07066191 1.0450001 4285693320
-0.48070005 0.07066191 1.0450001 4285758088
-0.48008385 0.070864767 1.0480001 4285823364
-0.4799124 0.071135238 1.052 4285626497
-0.47790858 0.071135238 1.052 4285429633
-0.47726193 0.071338102 1.0550001 4285232513
-0.47660387 0.071540952 1.0580001 4285101950
-0.47593433 0.071743816 1.0610001 4285495164
-0.47525331 0.071946666 1.064 4285953915
-0.47945336 0.072893336 1.0780001 4286083963
-0.48050001 0.073366672 1.085 4286214015
-0.48107907 0.073772386 1.0910001 4286872707
-0.48075715 0.074042857 1.095 4287531655
-0.47998288 0.074245714 1.098 4288126091
-0.48093811 0.074719049 1.105 4288655010
-0.47883332 0.074719049 1.105 4288396217
-0.48018003 0.075259998 1.113 4288137402
-0.48106664 0.075733326 1.12 4287808443
-0.48021621 0.075936191 1.123 4287479471
-0.48148286 0.076477148 1.131 4287343779
-0.47932857 0.076477148 1.131 4287273632
-0.47844002 0.076680005 1.1340001 4287135389
-0.47795999 0.076950483 1.138 4286997379
-0.4774648 0.077220961 1.1420001 4286413930
-0.47986761 0.07796476 1.153 4285821555
-0.48264289 0.078776196 1.1650001 4285823612
-0.48207334 0.079046667 1.169 4285757572
-0.48148862 0.079317145 1.1730001 4285823117
-0.48088858 0.079587616 1.177 4285888649
-0.47864667 0.079587616 1.177 4285954694
-0.48288098 0.080669522 1.1930001 4285955460
-0.48584574 0.081548579 1.2060001 4285889666
-0.48354861 0.081548579 1.2060001 4285758336
-0.48284763 0.08181905 1.21 4285823103
-0.48054287 0.08181905 1.21 4285953920
-0.47981909 0.082089528 1.2140001 4285757314
-0.47947338 0.082427621 1.2190001 4285626240
-0.47871715 0.082698092 1.223 4285494655
-0.47794574 0.082968585 1.2270001 4285297529
-0.48413619 0.084456198 1.2490001 4285165940
-0.4856143 0.08513239 1.2590001 4285099123
-0.48667046 0.085740954 1.268 4284967282
-0.48578286 0.086011432 1.2720001 4284835440
-0.48336002 0.086011432 1.2720001 4284769902
-0.48282763 0.086349532 1.2770001 4284639085
-0.4822762 0.086687624 1.2820001 4284442221
-0.48320284 0.087296195 1.291 4284310643
-0.4826057 0.08763428 1.296 4284441466
-0.48384196 0.08831048 1.3060001 4284572530
-0.48319718 0.08864858 1.3110001 4284375659
-0.48253337 0.088986672 1.3160001 4284244327
-0.4818505 0.089324765 1.3210001 4284441188
-0.48296288 0.090000957 1.3310001 4284638316
-0.48042765 0.090000957 1.3310001 4284440949
-0.48363715 0.091082864 1.3470001 4284243815
-0.48499998 0.091826662 1.358 4284112218
-0.48596573 0.092502862 1.368 4283980633
-0.48724669 0.093246669 1.3790001 4283717721
-0.48848575 0.093990482 1.3900001 4283520599
-0.48793527 0.094396196 1.396 4283586133
-0.48736191 0.09480191 1.4020001 4283713366
-0.48642004 0.095140003 1.4070001 4283647063
-0.48786575 0.09595143 1.419 4283581016
-0.48926577 0.096762858 1.4310001 4284043609
-0.49469998 0.098385714 1.455 4284440666
-0.49395716 0.098791428 1.4610001 4285031771
-0.49319148 0.099197149 1.4670001 4285557610
-0.49240285 0.099602856 1.473 4285887098
-0.49391809 0.10048191 1.4860001 4286216824
-0.49538383 0.10136096 1.4990001 4286613111
-0.25495335 0.079046667 1.169 4280493612
-0.25272667 0.079046667 1.169 4280165164
-0.25049999 0.079046667 1.169 4279901982
-0.24827334 0.079046667 1.169 4279507729
-0.24604666 0.079046667 1.169 4279178509
-0.24382001 0.079046667 1.169 4278980105
-0.24159333 0.079046667 1.169 4278849031
-0.23936667 0.079046667 1.169 4278717957
-0.23632859 0.078776196 1.1650001 4278586899
-0.48468098 0.072652385 1.0450001 4285693061
-0.48269051 0.072652385 1.0450001 4285430663
-0.48070005 0.072652385 1.0450001 4285561481
-0.48008385 0.072860956 1.0480001 4285757056
-0.4799124 0.073139049 1.052 4285494135
-0.47790858 0.073139049 1.052 4285231996
-0.47726193 0.073347628 1.0550001 4285297794
-0.47795528 0.073764771 1.0610001 4285363592
-0.47728002 0.073973328 1.064 4286019213
-0.47838002 0.074460007 1.0710001 4286743696
-0.47945336 0.074946672 1.0780001 4287271570
-0.47872859 0.075155243 1.0810001 4287800224
-0.48107907 0.075850479 1.0910001 4289115566
-0.48075715 0.076128572 1.095 4290493606
-0.47998288 0.076337151 1.098 4290233246
-0.48093811 0.076823808 1.105 4289962661
-0.48056668 0.077101909 1.1090001 4289046444
-0.48018003 0.077380002 1.113 4288126634
-0.48106664 0.077866666 1.12 4286813607
-0.48021621 0.078075238 1.123 4285564061
-0.48148286 0.078631431 1.131 4285625236
-0.47932857 0.078631431 1.131 4285690772
-0.47844002 0.078840002 1.1340001 4285625237
-0.47795999 0.079118095 1.138 4285560192
-0.47579238 0.079118095 1.138 4285888620
-0.4786191 0.079952382 1.1500001 4286216565
-0.48430002 0.08127334 1.169 4286086013
-0.48372287 0.081551433 1.1730001 4286020738
-0.48148862 0.081551433 1.1730001 4285955719
-0.48088858 0.081829526 1.177 4285889666
-0.48027337 0.082107626 1.1810001 4285889406
-0.47964287 0.082385719 1.1850001 4285889407
-0.4842343 0.083567619 1.202 4285758592
-0.48354861 0.08384572 1.2060001 4285692544
-0.48284763 0.084123813 1.21 4285954177
-0.48213145 0.084401913 1.2140001 4286216066
-0.47981909 0.084401913 1.2140001 4285953668
-0.48104668 0.085027628 1.223 4285691265
-0.4802829 0.085305721 1.2270001 4285559679
-0.47989336 0.085653335 1.2320001 4285428088
-0.48413619 0.086835235 1.2490001 4285230962
-0.4856143 0.087530479 1.2590001 4285033328
-0.48667046 0.088156193 1.268 4284966766
-0.48425525 0.088156193 1.268 4284900972
-0.48336002 0.088434286 1.2720001 4284704362
-0.48282763 0.088781908 1.2770001 4284573289
-0.4822762 0.08912953 1.2820001 4284507753
-0.48320284 0.089755237 1.291 4284442220
-0.4826057 0.090102859 1.296 4284376687
-0.48384196 0.090798102 1.3060001 4284376426
-0.48319718 0.091145724 1.3110001 4284245350
-0.48253337 0.091493338 1.3160001 4284179299
-0.48367432 0.092188574 1.3260001 4284440929
-0.48477715 0.092883818 1.3360001 4284768611
-0.48223239 0.092883818 1.3360001 4284440933
-0.48543242 0.093996197 1.3520001 4284111446
-0.48678571 0.094760954 1.363 4283912775
-0.48809716 0.095525712 1.3740001 4283716687
-0.48724669 0.095873341 1.3790001 4283389783
-0.48848575 0.096638106 1.3900001 4283127895
-0.49003237 0.097472385 1.4020001 4283390296
-0.48910004 0.097820006 1.4070001 4283719000
-0.48849434 0.098237149 1.4130001 4284047961
-0.4899286 0.099071428 1.4250001 4284377187
-0.49131712 0.099905714 1.437 4285034094
-0.49469998 0.10115714 1.455 4285692015
-0.49395716 0.10157429 1.4610001 4286219121
-0.49319148 0.10199144 1.4670001 4286744441
-0.49240285 0.10240858 1.473 4286876546
-0.49391809 0.10331238 1.4860001 4287073409
-0.49538383 0.10421619 1.4990001 4287204993
-0.25186193 0.080995239 1.1650001 4280231986
-0.25049999 0.08127334 1.169 4279902243
-0.24827334 0.08127334 1.169 4279508244
-0.24604666 0.08127334 1.169 4279112975
-0.24382001 0.08127334 1.169 4278980874
-0.24159333 0.08127334 1.169 4278914054
-0.23936667 0.08127334 1.169 4278848003
-0.48607242 0.074857146 1.0480001 4285561219
-0.48407623 0.074857146 1.0480001 4285363847
-0.48208004 0.074857146 1.0480001 4285429131
-0.48008385 0.074857146 1.0480001 4285494396
-0.4799124 0.07514286 1.052 4285952877
-0.47790858 0.07514286 1.052 4286411128
-0.4786191 0.075571433 1.0580001 4286871172
-0.47795528 0.075785719 1.0610001 4287396753
-0.47907433 0.07628572 1.0680001 4287925919
-0.47838002 0.076500006 1.0710001 4288520868
-0.47945336 0.077000007 1.0780001 4288457642
-0.4774 0.077000007 1.0780001 4288394690
-0.48284286 0.078214288 1.095 4288523994
-0.48075715 0.078214288 1.095 4288595397
-0.47998288 0.078428574 1.098 4288196017
-0.48093811 0.078928567 1.105 4287862440
-0.47883332 0.078928567 1.105 4287335328
-0.47845432 0.07921429 1.1090001 4286808218
-0.48106664 0.079999998 1.12 4286281876
-0.48021621 0.080214284 1.123 4285755532
-0.48148286 0.080785714 1.131 4285822597
-0.48060003 0.081 1.1340001 4285888649
-0.4801276 0.081285715 1.138 4285823629
-0.47795999 0.081285715 1.138 4285693054
-0.47579238 0.081285715 1.138 4286020719
-0.47695428 0.081857145 1.146 4286282871
-0.48430002 0.083500005 1.169 4286151551
-0.48372287 0.08378572 1.1730001 4286021248
-0.48148862 0.08378572 1.1730001 4285889922
-0.48088858 0.084071428 1.177 4285824380
-0.48027337 0.08435715 1.1810001 4285823606
-0.48126191 0.084928572 1.189 4285823354
-0.4842343 0.085857145 1.202 4285627006
-0.48515239 0.086428568 1.21 4285493377
-0.48284763 0.086428568 1.21 4285756548
-0.48213145 0.086714298 1.2140001 4286019717
-0.47981909 0.086714298 1.2140001 4285757318
-0.48104668 0.087357149 1.223 4285559938
-0.48224005 0.088000007 1.2320001 4285428607
-0.48145145 0.088285714 1.2360001 4285362296
-0.4860743 0.089571431 1.2540001 4285165681
-0.4856143 0.089928575 1.2590001 4284967789
-0.48667046 0.090571426 1.268 4284835946
-0.48425525 0.090571426 1.268 4284770408
-0.48336002 0.090857148 1.2720001 4284639078
-0.48282763 0.091214284 1.2770001 4284442469
-0.4822762 0.091571428 1.2820001 4284310885
-0.48170573 0.091928571 1.2870001 4284245349
-0.4826057 0.092571422 1.296 4284179813
-0.48384196 0.093285725 1.3060001 4284114275
-0.48319718 0.093642861 1.3110001 4284047713
-0.48436671 0.094357148 1.3210001 4283980639
-0.48549813 0.095071435 1.3310001 4284045918
-0.48477715 0.095428571 1.3360001 4284111194
-0.48223239 0.095428571 1.3360001 4284110678
-0.49333146 0.098142862 1.3740001 4284110405
-0.49250001 0.098499998 1.3790001 4283913012
-0.48987332 0.098499998 1.3790001 4283715653
-0.49113339 0.099285722 1.3900001 4283915350
-0.4905943 0.099714287 1.396 4284047448
-0.49178001 0.1005 1.4070001 4284505435
-0.49118575 0.10092857 1.4130001 4284897883
-0.48849434 0.10092857 1.4130001 4285293660
-0.4899286 0.10178572 1.4250001 4285754991
-0.48926577 0.1022143 1.4310001 4286150531
-0.49469998 0.10392857 1.455 4286611589
-0.49395716 0.10435715 1.4610001 4286874760
-0.49319148 0.10478573 1.4670001 4287203721
-0.49240285 0.10521429 1.473 4287138698
-0.49391809 0.10614286 1.4860001 4287073930
-0.49538383 0.10707143 1.4990001 4287008395
-0.25272667 0.083500005 1.169 4280428601
-0.25049999 0.083500005 1.169 4280033832
-0.24827334 0.083500005 1.169 4279573527
-0.24604666 0.083500005 1.169 4279113233
-0.24382001 0.083500005 1.169 4278980875
-0.24242002 0.08378572 1.1730001 4278848006
-0.24018574 0.08378572 1.1730001 4278848001
-0.23795144 0.08378572 1.1730001 4278848013
-0.48607242 0.076853342 1.0480001 4285494912
-0.48407623 0.076853342 1.0480001 4285298310
-0.48208004 0.076853342 1.0480001 4285300108
-0.48191622 0.077146672 1.052 4285299085
-0.4799124 0.077146672 1.052 4286412431
-0.47790858 0.077146672 1.052 4287596440
-0.4786191 0.077586666 1.0580001 4288518305
-0.47795528 0.077806674 1.0610001 4289440678
-0.47907433 0.078320004 1.0680001 4289839020
-0.47838002 0.078540012 1.0710001 4290295975
-0.47945336 0.079053335 1.0780001 4289638818
-0.47872859 0.079273336 1.0810001 4289047719
-0.48284286 0.080300003 1.095 4287867053
-0.48207429 0.080520004 1.098 4286747298
-0.47998288 0.080520004 1.098 4286217623
-0.48093811 0.081033334 1.105 4285758866
-0.47883332 0.081033334 1.105 4285627789
-0.47845432 0.081326671 1.1090001 4285562509
-0.4793486 0.081840008 1.1160001 4285757837
-0.47893333 0.08213333 1.12 4286019978
-0.47978005 0.082646675 1.1270001 4286085767
-0.47932857 0.082940005 1.131 4286151560
-0.4801276 0.083453335 1.138 4286020745
-0.47964004 0.083746672 1.1420001 4285889664
-0.4774648 0.083746672 1.1420001 4286152312
-0.47986761 0.084553331 1.153 4286413692
-0.48430002 0.085726663 1.169 4286217345
-0.48372287 0.086020008 1.1730001 4286086273
-0.48148862 0.086020008 1.1730001 4285889922
-0.48088858 0.086313337 1.177 4285758335
-0.48027337 0.086606674 1.1810001 4285758076
-0.47802386 0.086606674 1.1810001 4285757821
-0.4842343 0.088146664 1.202 4285495679
-0.48515239 0.088733338 1.21 4285297790
-0.48444384 0.089026667 1.2140001 4285559165
-0.48213145 0.089026667 1.2140001 4285889152
-0.47981909 0.089026667 1.2140001 4285626498
-0.48104668 0.089686669 1.223 4285429120
-0.48224005 0.090346672 1.2320001 4285363069
-0.48145145 0.090640001 1.2360001 4285297017
-0.48413619 0.091593333 1.2490001 4285100405
-0.4856143 0.092326671 1.2590001 4284902000
-0.48475143 0.09262 1.263 4284770666
-0.48425525 0.092986666 1.268 4284704872
-0.48336002 0.09328001 1.2720001 4284508263
-0.48282763 0.093646668 1.2770001 4284376932
-0.4822762 0.094013333 1.2820001 4284179810
-0.48170573 0.094380006 1.2870001 4284048736
-0.4826057 0.095040001 1.296 4283917918
-0.48384196 0.095773347 1.3060001 4283851093
-0.48504004 0.09650667 1.3160001 4283784524
-0.48803338 0.097606674 1.3310001 4283782998
-0.48732191 0.097973339 1.3360001 4283651168
-0.48695427 0.098413333 1.342 4283519841
-0.4843981 0.098413333 1.342 4283781729
-0.49333146 0.10076001 1.3740001 4284110421
-0.49071428 0.10076001 1.3740001 4283914568
-0.48987332 0.10112667 1.3790001 4283784533
-0.49113339 0.10193334 1.3900001 4284375394
-0.4905943 0.10237334 1.396 4285033059
-0.49178001 0.10318001 1.4070001 4285559909
-0.49118575 0.10362001 1.4130001 4286150506
-0.48849434 0.10362001 1.4130001 4286610287
-0.4899286 0.1045 1.4250001 4287137147
-0.48926577 0.10494001 1.4310001 4287336328
-0.49266002 0.10626 1.4490001 4287532679
-0.49395716 0.10714 1.4610001 4287597958
-0.49319148 0.10758001 1.4670001 4287728780
-0.49240285 0.10802 1.473 4287400849
-0.49391809 0.10897334 1.4860001 4287139469
-0.49307054 0.10941334 1.4920001 4286811785
-0.25272667 0.085726663 1.169 4280625456
-0.25049999 0.085726663 1.169 4280164641
-0.24827334 0.085726663 1.169 4279638802
-0.24604666 0.085726663 1.169 4279113229
-0.24382001 0.085726663 1.169 4278980872
-0.24159333 0.085726663 1.169 4278848774
-0.24018574 0.086020008 1.1730001 4278848005
-0.23632859 0.085433342 1.1650001 4278847753
-0.23410954 0.085433342 1.1650001 4279372046
-0.48407623 0.078849532 1.0480001 4287067781
-0.48208004 0.078849532 1.0480001 4287531405
-0.48008385 0.078849532 1.0480001 4288060575
-0.47808763 0.078849532 1.0480001 4288392114
-0.47790858 0.079150476 1.052 4288723640
-0.47726193 0.079376198 1.0550001 4288987839
-0.47660387 0.079601914 1.0580001 4289252028
-0.47593433 0.079827629 1.0610001 4288724921
-0.47525331 0.080053329 1.064 4288263593
-0.47767431 0.080805711 1.074 4287930778
-0.48050001 0.081633337 1.085 4287663757
-0.47843334 0.081633337 1.085 4287075201
-0.48207429 0.082611434 1.098 4286538879
-0.48173141 0.082912378 1.102 4286283389
-0.47963238 0.082912378 1.102 4286021500
-0.47883332 0.083138093 1.105 4285890171
-0.47672856 0.083138093 1.105 4285824384
-0.47806001 0.083740003 1.113 4285955206
-0.47722286 0.083965711 1.1160001 4286086280
-0.47807714 0.084492385 1.123 4286085770
-0.47932857 0.085094288 1.131 4286086024
-0.47717431 0.085094288 1.131 4286020742
-0.48132002 0.086222857 1.146 4285955203
-0.4820638 0.086749524 1.153 4286086017
-0.48153242 0.087050483 1.1570001 4286282626
-0.48430002 0.087953337 1.169 4286151555
-0.48207334 0.087953337 1.169 4286020483
-0.48148862 0.088254295 1.1730001 4285888899
-0.47925431 0.088254295 1.1730001 4285757570
-0.47864667 0.088555239 1.177 4285757826
-0.47640476 0.088555239 1.177 4285692801
-0.47416288 0.088555239 1.177 4285626752
-0.48515239 0.0910381 1.21 4285495419
-0.48284763 0.0910381 1.21 4285758071
-0.48411715 0.091715246 1.2190001 4286020731
-0.48179528 0.091715246 1.2190001 4285757055
-0.48104668 0.09201619 1.223 4285494909
-0.47871715 0.09201619 1.223 4285363324
-0.47989336 0.092693344 1.2320001 4285231739
-0.48413619 0.093972385 1.2490001 4285034362
-0.4856143 0.094724767 1.2590001 4284836210
-0.48475143 0.095025711 1.263 4284704875
-0.48578286 0.095702864 1.2720001 4284572777
-0.48526004 0.096079051 1.2770001 4284376680
-0.48471811 0.096455246 1.2820001 4284246116
-0.48415715 0.096831433 1.2870001 4284048992
-0.48320284 0.097132377 1.291 4283917403
-0.48446766 0.097884767 1.3010001 4283719767
-0.48198956 0.097884767 1.3010001 4283522375
-0.48872575 0.099765718 1.3260001 4283652663
-0.48620003 0.099765718 1.3260001 4283782221
-0.48732191 0.1005181 1.3360001 4283781987
-0.48695427 0.10096952 1.342 4283781736
-0.49017334 0.10217334 1.358 4284109933
-0.48758668 0.10217334 1.358 4284503909
-0.49071428 0.10337715 1.3740001 4284769117
-0.49200478 0.10420477 1.3850001 4285034597
-0.49113339 0.10458095 1.3900001 4285560430
-0.49270287 0.10548382 1.4020001 4286151791
-0.49003237 0.10548382 1.4020001 4286481264
-0.49118575 0.10631143 1.4130001 4286876281
-0.49056855 0.10676286 1.419 4287074434
-0.4899286 0.10721429 1.4250001 4287338119
-0.48926577 0.10766573 1.4310001 4287336333
-0.49061999 0.10856858 1.4430001 4287402121
-0.49192858 0.10947143 1.455 4287467397
-0.49319148 0.11037429 1.4670001 4287467407
-0.49240285 0.11082572 1.473 4287270809
-0.49391809 0.11180381 1.4860001 4287074192
-0.49538383 0.11278191 1.4990001 4286877575
-0.25359145 0.088254295 1.1730001 4280493095
-0.25049999 0.087953337 1.169 4280295450
-0.24912286 0.088254295 1.1730001 4279770126
-0.24604666 0.087953337 1.169 4279244298
-0.24382001 0.087953337 1.169 4279046150
-0.24242002 0.088254295 1.1730001 4278849799
-0.24018574 0.088254295 1.1730001 4278782729
-0.23714 0.087953337 1.169 4278717958
-0.23491335 0.087953337 1.169 4279044611
-0.23268667 0.087953337 1.169 4279372325
-0.48407623 0.080845721 1.0480001 4288849568
-0.48070005 0.080614291 1.0450001 4289839011
-0.48008385 0.080845721 1.0480001 4290822570
-0.48128098 0.081385717 1.0550001 4290299058
-0.47790858 0.081154287 1.052 4289837742
-0.47726193 0.081385717 1.0550001 4289441962
-0.47660387 0.081617147 1.0580001 4289042596
-0.47593433 0.081848577 1.0610001 4287660447
-0.47525331 0.082079999 1.064 4286283670
-0.47767431 0.082851432 1.074 4286283150
-0.48182857 0.083931431 1.0880001 4286283402
-0.48416573 0.084702857 1.098 4286283654
-0.48207429 0.084702857 1.098 4286349187
-0.47998288 0.084702857 1.098 4286283905
-0.47963238 0.08501143 1.102 4286283387
-0.47753334 0.08501143 1.102 4286218869
-0.47672856 0.08524286 1.105 4286152316
-0.47806001 0.085859999 1.113 4286152579
-0.47722286 0.086091429 1.1160001 4286151560
-0.47679999 0.086400002 1.12 4286085774
-0.47932857 0.087248571 1.131 4286086025
-0.48350286 0.088405721 1.146 4286020996
-0.48300004 0.088714294 1.1500001 4286020739
-0.48080954 0.088714294 1.1500001 4286085506
-0.48153242 0.08925429 1.1570001 4286216578
-0.48264289 0.089871436 1.1650001 4286085250
-0.48207334 0.090180002 1.169 4286019713
-0.48148862 0.090488575 1.1730001 4285888640
-0.47925431 0.090488575 1.1730001 4285823104
-0.47864667 0.090797149 1.177 4285757825
-0.47640476 0.090797149 1.177 4285692288
-0.47577432 0.091105722 1.1810001 4285692544
-0.48515239 0.093342856 1.21 4285757566
-0.48643908 0.094037145 1.2190001 4285954427
-0.48411715 0.094037145 1.2190001 4286216060
-0.48179528 0.094037145 1.2190001 4285887870
-0.48104668 0.094345719 1.223 4285560188
-0.4802829 0.094654292 1.2270001 4285363579
-0.47989336 0.095040008 1.2320001 4285231737
-0.48413619 0.096351437 1.2490001 4284968312
-0.48715717 0.097431429 1.263 4284770416
-0.48667046 0.097817145 1.268 4284573801
-0.48769242 0.098511435 1.2770001 4284441446
-0.48716003 0.098897144 1.2820001 4284245348
-0.48471811 0.098897144 1.2820001 4284113246
-0.48415715 0.099282861 1.2870001 4283913304
-0.48507428 0.099977143 1.296 4283782746
-0.48819143 0.10113429 1.3110001 4283455836
-0.49125144 0.10229144 1.3260001 4283193425
-0.48872575 0.10229144 1.3260001 4283455558
-0.49206665 0.10352571 1.342 4283784021
-0.49133435 0.10391144 1.3470001 4283916900
-0.49058291 0.10429715 1.3520001 4284113770
-0.49197811 0.10514572 1.363 4284507504
-0.49333146 0.10599429 1.3740001 4284902769
-0.49250001 0.10638 1.3790001 4285625715
-0.49200478 0.10684286 1.3850001 4286349432
-0.49113339 0.10722858 1.3900001 4286812285
-0.49270287 0.10815429 1.4020001 4287270271
-0.49387717 0.10900287 1.4130001 4287466369
-0.49118575 0.10900287 1.4130001 4287664259
-0.49056855 0.10946572 1.419 4287600005
-0.49199149 0.11039144 1.4310001 4287534472
-0.48926577 0.11039144 1.4310001 4287402123
-0.49266002 0.11178001 1.4490001 4287336584
-0.49395716 0.11270572 1.4610001 4287271045
-0.49319148 0.11316858 1.4670001 4287270538
-0.49240285 0.11363143 1.473 4287139472
-0.49391809 0.11463429 1.4860001 4287008139
-0.49307054 0.11509714 1.4920001 4286942598
-0.25359145 0.090488575 1.1730001 4280428581
-0.25049999 0.090180002 1.169 4280492829
-0.24912286 0.090488575 1.1730001 4279966997
-0.24688859 0.090488575 1.1730001 4279440657
-0.24465431 0.090488575 1.1730001 4279111437
-0.24242002 0.090488575 1.1730001 4278849037
-0.24018574 0.090488575 1.1730001 4278717453
-0.23714 0.090180002 1.169 4278586632
-0.23491335 0.090180002 1.169 4278717443
-0.23268667 0.090180002 1.169 4278847520
-0.48208004 0.08284191 1.0480001 4288859322
-0.48329049 0.083395243 1.0550001 4288661174
-0.48128098 0.083395243 1.0550001 4288261810
-0.47927147 0.083395243 1.0550001 4287928227
-0.47726193 0.083395243 1.0550001 4287658901
-0.47660387 0.083632387 1.0580001 4287455373
-0.47593433 0.083869532 1.0610001 4286873222
-0.47525331 0.084106669 1.064 4286347652
-0.47767431 0.084897138 1.074 4286283394
-0.48050001 0.085766666 1.085 4286283398
-0.48284286 0.086557142 1.095 4286283915
-0.48075715 0.086557142 1.095 4286349704
-0.47998288 0.086794287 1.098 4286218374
-0.47963238 0.087110482 1.102 4286086779
-0.47753334 0.087110482 1.102 4286152304
-0.47672856 0.087347619 1.105 4286152568
-0.47634193 0.087663814 1.1090001 4286217600
-0.47722286 0.088217147 1.1160001 4286347913
-0.47679999 0.088533334 1.12 4286216850
-0.47932857 0.089402854 1.131 4286086026
-0.48350286 0.090588577 1.146 4286086019
-0.48300004 0.090904765 1.1500001 4286020739
-0.4820638 0.091141902 1.153 4286151555
-0.48153242 0.091458097 1.1570001 4286282370
-0.48264289 0.09209048 1.1650001 4286151553
-0.48207334 0.092406668 1.169 4285955199
-0.48148862 0.092722863 1.1730001 4285954942
-0.47925431 0.092722863 1.1730001 4285954687
-0.47864667 0.093039051 1.177 4285757824
-0.47640476 0.093039051 1.177 4285561216
-0.47577432 0.093355246 1.1810001 4285626497
-0.48354861 0.095331438 1.2060001 4285757312
-0.48643908 0.096359059 1.2190001 4285822848
-0.48213145 0.095963813 1.2140001 4285887870
-0.48179528 0.096359059 1.2190001 4285625725
-0.48104668 0.09667524 1.223 4285362812
-0.48224005 0.097386681 1.2320001 4285166459
-0.48300952 0.098019041 1.24 4284969848
-0.48413619 0.098730482 1.2490001 4284770934
-0.48715717 0.099837147 1.263 4284573550
-0.48667046 0.10023239 1.268 4284441959
-0.48769242 0.10094381 1.2770001 4284310372
-0.48905998 0.10173429 1.2870001 4284243809
-0.48660859 0.10173429 1.2870001 4284177241
-0.48754287 0.10244571 1.296 4284045649
-0.49068859 0.10363144 1.3110001 4283848793
-0.49005336 0.10402668 1.3160001 4283783266
-0.49125144 0.10481714 1.3260001 4283717979
-0.49056861 0.10521238 1.3310001 4284242773
-0.49206665 0.1060819 1.342 4284767837
-0.49133435 0.10647715 1.3470001 4285162597
-0.49276 0.10734667 1.358 4285557612
-0.49197811 0.10774191 1.363 4285887859
-0.49333146 0.10861143 1.3740001 4286218110
-0.49250001 0.10900667 1.3790001 4286612874
-0.49200478 0.10948096 1.3850001 4287073163
-0.49113339 0.1098762 1.3900001 4287205516
-0.49270287 0.11082476 1.4020001 4287403663
-0.49387717 0.11169429 1.4130001 4287534995
-0.49118575 0.11169429 1.4130001 4287666573
-0.49056855 0.11216857 1.419 4287731592
-0.49199149 0.11311715 1.4310001 4287796360
-0.49131712 0.11359143 1.437 4287533705
-0.49266002 0.11454001 1.4490001 4287271047
-0.49395716 0.11548858 1.4610001 4287205509
-0.49520856 0.11643714 1.473 4287204742
-0.49240285 0.11643714 1.473 4287073416
-0.49391809 0.11746477 1.4860001 4287007623
-0.49307054 0.11793905 1.4920001 4286876294
-0.24912286 0.092722863 1.1730001 4280032028
-0.24688859 0.092722863 1.1730001 4279309336
-0.24465431 0.092722863 1.1730001 4279046165
-0.24242002 0.092722863 1.1730001 4278849043
-0.24018574 0.092722863 1.1730001 4278783505
-0.23714 0.092406668 1.169 4278717962
-0.23491335 0.092406668 1.169 4278651139
-0.23268667 0.092406668 1.169 4278650651
-0.48208004 0.0848381 1.0480001 4287930530
-0.48329049 0.085404761 1.0550001 4286484383
-0.48128098 0.085404761 1.0550001 4286218139
-0.47927147 0.085404761 1.0550001 4286020245
-0.47726193 0.085404761 1.0550001 4285953679
-0.47660387 0.085647628 1.0580001 4285888651
-0.47593433 0.085890487 1.0610001 4286151560
-0.47525331 0.086133331 1.064 4286414214
-0.47945336 0.087266669 1.0780001 4286349444
-0.48315716 0.088319056 1.0910001 4286349701
-0.48284286 0.088642858 1.095 4286349958
-0.48075715 0.088642858 1.095 4286349702
-0.47998288 0.088885717 1.098 4286152837
-0.47963238 0.089209519 1.102 4285955967
-0.47753334 0.089209519 1.102 4286087032
-0.47672856 0.089452386 1.105 4286218107
-0.47806001 0.090100005 1.113 4286348158
-0.47594002 0.090100005 1.113 4286545028
-0.47509715 0.090342864 1.1160001 4286348681
-0.47932857 0.091557145 1.131 4286151558
-0.48519051 0.093095243 1.1500001 4286085762
-0.48425999 0.093338095 1.153 4286086021
-0.4820638 0.093338095 1.153 4286217353
-0.48153242 0.093661912 1.1570001 4286413445
-0.48264289 0.094309531 1.1650001 4286152322
-0.48207334 0.094633341 1.169 4285955201
-0.47984669 0.094633341 1.169 4286020480
-0.47925431 0.094957151 1.1730001 4286085759
-0.47864667 0.09528096 1.177 4285758591
-0.47640476 0.09528096 1.177 4285430400
-0.47577432 0.09560477 1.1810001 4285560960
-0.48354861 0.097628579 1.2060001 4285757313
-0.48444384 0.098276198 1.2140001 4285626242
-0.48213145 0.098276198 1.2140001 4285560702
-0.48179528 0.098680958 1.2190001 4285364345
-0.47947338 0.098680958 1.2190001 4285231990
-0.48224005 0.099733338 1.2320001 4284970098
-0.48495716 0.10078571 1.245 4284772465
-0.4880124 0.10191905 1.2590001 4284573808
-0.48908567 0.10264762 1.268 4284441445
-0.48820573 0.10297143 1.2720001 4284309082
-0.48960194 0.10378096 1.2820001 4284242783
-0.49057999 0.10450953 1.291 4284242276
-0.48812091 0.10450953 1.291 4284308060
-0.48942381 0.10531905 1.3010001 4284111700
-0.49068859 0.10612858 1.3110001 4283980893
-0.49005336 0.10653334 1.3160001 4284114534
-0.49125144 0.10734286 1.3260001 4284247651
-0.48872575 0.10734286 1.3260001 4285036128
-0.49206665 0.10863809 1.342 4285822834
-0.49133435 0.10904287 1.3470001 4286413188
-0.49276 0.10993333 1.358 4287004546
-0.49378285 0.11074285 1.368 4287268479
-0.49333146 0.11122858 1.3740001 4287598728
-0.49464291 0.11211905 1.3850001 4287666833
-0.49200478 0.11211905 1.3850001 4287798678
-0.49113339 0.11252382 1.3900001 4287668378
-0.49270287 0.11349525 1.4020001 4287600790
-0.49387717 0.11438572 1.4130001 4287666578
-0.49118575 0.11438572 1.4130001 4287732110
-0.49056855 0.11487143 1.419 4287863179
-0.49199149 0.11584286 1.4310001 4288058764
-0.49131712 0.11632857 1.437 4287665550
-0.49266002 0.1173 1.4490001 4287270795
-0.49395716 0.11827143 1.4610001 4287205513
-0.49319148 0.11875715 1.4670001 4287139208
-0.49240285 0.11924285 1.473 4287073416
-0.49192381 0.11980952 1.48 4287007622
-0.49307054 0.12078096 1.4920001 4286876549
-0.24912286 0.094957151 1.1730001 4280097309
-0.24688859 0.094957151 1.1730001 4279243544
-0.24465431 0.094957151 1.1730001 4279046420
-0.24242002 0.094957151 1.1730001 4278849043
-0.24018574 0.094957151 1.1730001 4278849042
-0.23714 0.094633341 1.169 4278849290
-0.23491335 0.094633341 1.169 4278650371
-0.23189048 0.094309531 1.1650001 4278453791
-0.22967143 0.094309531 1.1650001 4281555771
-0.48208004 0.086834297 1.0480001 4287136651
-0.48329049 0.087414287 1.0550001 4286480520
-0.48128098 0.087414287 1.0550001 4286348933
-0.47927147 0.087414287 1.0550001 4286217607
-0.47726193 0.087414287 1.0550001 4286217866
-0.47660387 0.087662861 1.0580001 4286152586
-0.47593433 0.087911434 1.0610001 4286283658
-0.47525331 0.088160001 1.064 4286349192
-0.48078766 0.089568578 1.0810001 4286349190
-0.48182857 0.090148576 1.0880001 4286284420
-0.48107907 0.090397149 1.0910001 4286284162
-0.48075715 0.090728574 1.095 4286284163
-0.47998288 0.09097714 1.098 4286152837
-0.47963238 0.091308571 1.102 4286087299
-0.47753334 0.091308571 1.102 4286152577
-0.47845432 0.091888577 1.1090001 4286218111
-0.47806001 0.092220001 1.113 4286086781
-0.47594002 0.092220001 1.113 4285955711
-0.47509715 0.092468575 1.1160001 4286020993
-0.47763336 0.093380012 1.1270001 4286020737
-0.48519051 0.095285721 1.1500001 4286020482
-0.48425999 0.09553428 1.153 4286020488
-0.48373622 0.095865719 1.1570001 4286151567
-0.48153242 0.095865719 1.1570001 4286282633
-0.48264289 0.096528575 1.1650001 4286086019
-0.48207334 0.096859999 1.169 4285955202
-0.48148862 0.097191438 1.1730001 4285889410
-0.47925431 0.097191438 1.1730001 4285889152
-0.47864667 0.097522855 1.177 4285692543
-0.47640476 0.097522855 1.177 4285561727
-0.47577432 0.097854294 1.1810001 4285561728
-0.48354861 0.099925719 1.2060001 4285627266
-0.48444384 0.10058858 1.2140001 4285430661
-0.48213145 0.10058858 1.2140001 4285299837
-0.47981909 0.10058858 1.2140001 4285102198
-0.4775067 0.10058858 1.2140001 4284904560
-0.47519431 0.10058858 1.2140001 4284575850
-0.4884629 0.10390286 1.2540001 4284247402
-0.4860743 0.10390286 1.2540001 4284179307
-0.49741715 0.10738286 1.296 4284243534
-0.49494854 0.10738286 1.296 4284241499
-0.49438006 0.10779715 1.3010001 4284373096
-0.49190196 0.10779715 1.3010001 4284570208
-0.49130481 0.10821144 1.3060001 4284767576
-0.49068859 0.10862572 1.3110001 4285030753
-0.49005336 0.10904001 1.3160001 4285296747
-0.48939905 0.1094543 1.3210001 4285560683
-0.48872575 0.10986858 1.3260001 4286151532
-0.4898667 0.11069715 1.3360001 4286742664
-0.49133435 0.11160858 1.3470001 4287072164
-0.49276 0.11252 1.358 4287401880
-0.49378285 0.11334857 1.368 4287534476
-0.49512666 0.11426 1.3790001 4287667090
-0.49464291 0.11475715 1.3850001 4287732889
-0.49378097 0.11517143 1.3900001 4287798689
-0.49325335 0.11566857 1.396 4287732649
-0.49446005 0.11658 1.4070001 4287601309
-0.49387717 0.11707715 1.4130001 4287601042
-0.49118575 0.11707715 1.4130001 4287666320
-0.49056855 0.11757429 1.419 4287666062
-0.49199149 0.11856858 1.4310001 4287666065
-0.49131712 0.11906572 1.437 4287402900
-0.49469998 0.12055714 1.455 4287139728
-0.49598575 0.12155144 1.4670001 4287074189
-0.49520856 0.12204857 1.473 4287008395
-0.49240285 0.12204857 1.473 4286942345
-0.49391809 0.12312572 1.4860001 4286941830
-0.49307054 0.12362287 1.4920001 4286810756
-0.24912286 0.097191438 1.1730001 4279900702
-0.24688859 0.097191438 1.1730001 4279243288
-0.24465431 0.097191438 1.1730001 4278980627
-0.24242002 0.097191438 1.1730001 4278717971
-0.24018574 0.097191438 1.1730001 4278783507
-0.23714 0.096859999 1.169 4278849803
-0.23491335 0.096859999 1.169 4278651139
-0.23268667 0.096859999 1.169 4278453539
-0.23046 0.096859999 1.169 4281224515
-0.47656 0.087813333 1.036 4286350988
-0.48329049 0.089423813 1.0550001 4286547594
-0.48264956 0.089678101 1.0580001 4286482312
-0.47927147 0.089423813 1.0550001 4286480266
-0.47726193 0.089423813 1.0550001 4286480012
-0.47660387 0.089678101 1.0580001 4286480267
-0.47593433 0.08993239 1.0610001 4286414986
-0.47525331 0.090186663 1.064 4286349193
-0.47767431 0.091034286 1.074 4286283655
-0.48182857 0.092220962 1.0880001 4286283905
-0.48107907 0.092475243 1.0910001 4286218364
-0.48075715 0.092814289 1.095 4286218367
-0.47998288 0.093068577 1.098 4286218371
-0.47963238 0.093407623 1.102 4286218375
-0.47883332 0.093661904 1.105 4286218891
-0.47845432 0.094000958 1.1090001 4286217606
-0.47806001 0.094340004 1.113 4285824386
-0.47722286 0.094594292 1.1160001 4285431170
-0.47509715 0.094594292 1.1160001 4285693570
-0.47932857 0.095865719 1.131 4285955201
-0.48350286 0.097137146 1.146 4285954945
-0.48425999 0.097730473 1.153 4286020484
-0.48373622 0.098069526 1.1570001 4286086536
-0.48319712 0.098408572 1.161 4286151045
-0.48430002 0.099086665 1.169 4286019970
-0.48207334 0.099086665 1.169 4285954689
-0.48148862 0.099425726 1.1730001 4285823873
