# .PCD v0.7 - Point Cloud Data file format
VERSION 0.7
FIELDS x y z rgba
SIZE 4 4 4 4
TYPE F F F U
COUNT 1 1 1 1
WIDTH 1089
HEIGHT 1
VIEWPOINT 0 0 0 1 0 0 0
POINTS 1089
DATA ascii
-0.15166669 0.25319049 0.65000004 4279243028
-0.14996572 0.25241143 0.648 4279308822
-0.14873143 0.25241143 0.648 4279373852
-0.14749713 0.25241143 0.648 4279307810
-0.14603715 0.25202191 0.64700001 4279242269
-0.14480476 0.25202191 0.64700001 4279176728
-0.14312857 0.25124288 0.64500004 4279111188
-0.14234 0.25202191 0.64700001 4279111183
-0.14132571 0.25241143 0.648 4279111178
-0.13987523 0.25202191 0.64700001 4279045637
-0.13864285 0.25202191 0.64700001 4279045382
-0.13762285 0.25241143 0.648 4278979591
-0.13638857 0.25241143 0.648 4278979599
-0.13515429 0.25241143 0.648 4278979606
-0.13392 0.25241143 0.648 4278979341
-0.13268572 0.25241143 0.648 4278848259
-0.12912858 0.2551381 0.65500003 4278585862
-0.12788096 0.2551381 0.65500003 4278651657
-0.12624668 0.25435907 0.65300006 4278718221
-0.12481143 0.25396952 0.65200001 4278847497
-0.12338001 0.25358 0.65100002 4278716422
-0.12214001 0.25358 0.65100002 4278650884
-0.12071429 0.25319049 0.65000004 4278585090
-0.11947619 0.25319049 0.65000004 4278585346
-0.11787428 0.25241143 0.648 4278651650
-0.11646 0.25202191 0.64700001 4278782466
-0.11487143 0.25124288 0.64500004 4278585090
-0.11364286 0.25124288 0.64500004 4278388737
-0.11171715 0.24968477 0.64100003 4278455041
-0.11049619 0.24968477 0.64100003 4278520579
-0.10910477 0.24929525 0.64000005 4278651397
-0.10788572 0.24929525 0.64000005 4278848266
-0.10666667 0.24929525 0.64000005 4278782992
-0.10528287 0.24890572 0.63900006 4278783242
-0.10406572 0.24890572 0.63900006 4278980101
-0.10268762 0.2485162 0.63800001 4279176458
-0.10147239 0.2485162 0.63800001 4279504656
-0.099942856 0.24773717 0.63600004 4279898377
-0.098576196 0.24734764 0.63500005 4282799875
-0.097060002 0.24656858 0.63300002 4285747998
-0.095702864 0.24617904 0.63200003 4285493305
-0.094349533 0.24578953 0.63100004 4285229116
-0.092852384 0.2450105 0.62900001 4285229376
-0.091508567 0.24462096 0.62800002 4285230407
-0.090168573 0.24423145 0.62700003 4285035087
-0.08897429 0.24423145 0.62700003 4284834886
-0.087780006 0.24423145 0.62700003 4284900670
-0.086585723 0.24423145 0.62700003 4284965953
-0.085391432 0.24423145 0.62700003 4284965699
-0.084197149 0.24423145 0.62700003 4284965702
-0.08313524 0.24462096 0.62800002 4284900169
-0.08233048 0.24578953 0.63100004 4284834888
-0.081128575 0.24578953 0.63100004 4284900679
-0.07992667 0.24578953 0.63100004 4284965957
-0.078724764 0.24578953 0.63100004 4284965187
-0.077522859 0.24578953 0.63100004 4285030467
-0.076320961 0.24578953 0.63100004 4284899138
-0.075119056 0.24578953 0.63100004 4284767552
-0.07368286 0.2450105 0.62900001 4284701757
-0.072484761 0.2450105 0.62900001 4284635969
-0.071286663 0.2450105 0.62900001 4284635717
-0.069977149 0.24462096 0.62800002 4284702535
-0.068780951 0.24462096 0.62800002 4284702282
-0.067692384 0.2450105 0.62900001 4284767820
-0.06638857 0.24462096 0.62800002 4284767823
-0.065503813 0.24578953 0.63100004 4284833359
-0.06440381 0.24617904 0.63200003 4285030224
-0.063300006 0.24656858 0.63300002 4285227597
-0.06219238 0.24695809 0.634 4285162571
-0.060984757 0.24695809 0.634 4285097034
-0.059777141 0.24695809 0.634 4285031497
-0.058569524 0.24695809 0.634 4284965707
-0.057271428 0.24656858 0.63300002 4284899918
-0.056065716 0.24656858 0.63300002 4284834125
-0.054773334 0.24617904 0.63200003 4284571980
-0.053484764 0.24578953 0.63100004 4284309834
-0.052117143 0.2450105 0.62900001 4284506440
-0.050919048 0.2450105 0.62900001 4284703047
-0.049641903 0.24462096 0.62800002 4284571975
-0.048445713 0.24462096 0.62800002 4284440386
-0.047174286 0.24423145 0.62700003 4284440125
-0.046053335 0.24462096 0.62800002 4284505148
-0.044928569 0.2450105 0.62900001 4284570428
-0.043869525 0.24578953 0.63100004 4284700989
-0.042735238 0.24617904 0.63200003 4284504127
-0.041531429 0.24617904 0.63200003 4284307265
-0.04032762 0.24617904 0.63200003 4284110658
-0.039061908 0.24578953 0.63100004 4283978813
-0.037860002 0.24578953 0.63100004 4283715896
-0.036658097 0.24578953 0.63100004 4283519282
-0.035456195 0.24578953 0.63100004 4283257132
-0.034145713 0.2450105 0.62900001 4283058981
-0.032947619 0.2450105 0.62900001 4282403102
-0.031749524 0.2450105 0.62900001 4281808927
-0.030551426 0.2450105 0.62900001 4281152800
-0.029446669 0.24578953 0.63100004 4280561690
-0.028244764 0.24578953 0.63100004 4279633941
-0.027128572 0.24656858 0.63300002 4278781707
-0.025922857 0.24656858 0.63300002 4278848513
-0.024717143 0.24656858 0.63300002 4278913541
-0.023622857 0.24773717 0.63600004 4278913544
-0.02241143 0.24773717 0.63600004 4278913285
-0.021200001 0.24773717 0.63600004 4278979586
-0.019988572 0.24773717 0.63600004 4279109379
-0.017861906 0.23566191 0.60500002 4278978308
-0.016709523 0.23566191 0.60500002 4278847493
-0.015582857 0.23605143 0.60600001 4278782469
-0.014428572 0.23605143 0.60600001 4278782473
-0.013274285 0.23605143 0.60600001 4278782478
-0.01212 0.23605143 0.60600001 4278782217
-0.010965714 0.23605143 0.60600001 4278782212
-0.0098276203 0.23644097 0.60700005 4278781957
-0.008671429 0.23644097 0.60700005 4278782725
-0.0075152386 0.23644097 0.60700005 4278848007
-0.0063485713 0.23605143 0.60600001 4278782217
-0.0051942859 0.23605143 0.60600001 4278782728
-0.00404 0.23605143 0.60600001 4278717703
-0.0028857142 0.23605143 0.60600001 4278652168
-0.0017314287 0.23605143 0.60600001 4278718729
-0.00057714287 0.23605143 0.60600001 4278784262
0.00057714287 0.23605143 0.60600001 4278784259
0.0017314287 0.23605143 0.60600001 4278783748
0.0028904765 0.23644097 0.60700005 4278849028
0.0040466674 0.23644097 0.60700005 4278914054
0.0052028573 0.23644097 0.60700005 4278914569
0.0063590482 0.23644097 0.60700005 4278979078
0.0075152386 0.23644097 0.60700005 4278979587
0.008671429 0.23644097 0.60700005 4278979594
0.0098276203 0.23644097 0.60700005 4279045649
0.010983811 0.23644097 0.60700005 4279175689
0.01214 0.23644097 0.60700005 4279045122
0.013296192 0.23644097 0.60700005 4278980099
0.014476191 0.23683049 0.60800004 4278718213
0.015634285 0.23683049 0.60800004 4278521869
0.01682 0.23722 0.60900003 4278653461
0.017980002 0.23722 0.60900003 4278849293
0.019202856 0.23799905 0.611 4278849029
0.020300001 0.23722 0.60900003 4278849031
0.02146 0.23722 0.60900003 4278980873
0.022694286 0.23799905 0.611 4279111943
0.023858096 0.23799905 0.611 4279308550
0.025062859 0.23838858 0.61200005 4279504912
0.026228573 0.23838858 0.61200005 4279242779
0.027439049 0.2387781 0.61300004 4278981395
0.028653333 0.23916763 0.61400002 4278981642
0.029822858 0.23916763 0.61400002 4278981640
0.030992381 0.23916763 0.61400002 4279047430
0.032161906 0.23916763 0.61400002 4279176968
0.033331428 0.23916763 0.61400002 4279111433
0.034500953 0.23916763 0.61400002 4279111435
0.035670478 0.23916763 0.61400002 4279111437
0.036840003 0.23916763 0.61400002 4279112204
0.038009524 0.23916763 0.61400002 4279178252
0.03924286 0.23955715 0.61500001 4279244040
0.040414285 0.23955715 0.61500001 4279375621
0.041585714 0.23955715 0.61500001 4279506445
0.042757142 0.23955715 0.61500001 4279507733
0.044000003 0.23994668 0.61600006 4279572749
0.045246668 0.24033619 0.61700004 4279506437
0.046421908 0.24033619 0.61700004 4279507463
0.047674287 0.24072573 0.61800003 4279704842
0.048930477 0.24111524 0.61900002 4279901198
0.050109524 0.24111524 0.61900002 4280097811
0.051371425 0.24150476 0.62 4280358157
0.05255238 0.24150476 0.62 4280161799
0.053733334 0.24150476 0.62 4279965193
0.055091433 0.24228382 0.62200004 4279965451
0.056276195 0.24228382 0.62200004 4280030739
0.057553336 0.24267334 0.62300003 4279768604
0.058834285 0.24306285 0.62400001 4279573526
0.060119048 0.24345239 0.625 4279901713
0.061309524 0.24345239 0.625 4280294923
0.062600002 0.24384193 0.62600005 4280229638
0.063792385 0.24384193 0.62600005 4280163846
0.06508857 0.24423145 0.62700003 4279967750
0.066282853 0.24423145 0.62700003 4279770887
0.067477144 0.24423145 0.62700003 4279639560
0.068780951 0.24462096 0.62800002 4279574025
0.070088573 0.2450105 0.62900001 4280229642
0.071740001 0.24656858 0.63300002 4280949772
0.073060952 0.24695809 0.634 4280555790
0.074385718 0.24734764 0.63500005 4280162063
0.07571429 0.24773717 0.63600004 4280162833
0.076925717 0.24773717 0.63600004 4280228377
0.078137144 0.24773717 0.63600004 4280097313
0.079223812 0.24734764 0.63500005 4279966231
0.080940008 0.24890572 0.63900006 4279638541
0.08215715 0.24890572 0.63900006 4279309835
0.083504766 0.24929525 0.64000005 4279571208
0.084856197 0.24968477 0.64100003 4279899401
0.086077146 0.24968477 0.64100003 4279899401
0.087434284 0.2500743 0.64200002 4279899657
0.088933334 0.25085336 0.64400005 4279834378
0.090160005 0.25085336 0.64400005 4279835151
0.091528572 0.25124288 0.64500004 4280294676
0.093044758 0.25202191 0.64700001 4280754457
0.094277143 0.25202191 0.64700001 4280886813
0.096100003 0.25358 0.65100002 4281084455
0.097639054 0.25435907 0.65300006 4281347633
0.099488571 0.25591716 0.65700001 4281611060
0.10089334 0.25630668 0.65800005 4281612344
0.10214667 0.25630668 0.65800005 4281679673
0.10371429 0.25708571 0.66000003 4281810746
0.10497143 0.25708571 0.66000003 4281943097
0.10638952 0.25747523 0.66100001 4282402617
0.10797429 0.25825432 0.66300005 4282928956
0.10973143 0.25942287 0.66600001 4283126335
0.111 0.25942287 0.66600001 4283323205
0.1121 0.25903335 0.66500002 4283455819
0.11353715 0.25942287 0.66600001 4283652176
0.11480572 0.25942287 0.66600001 4283849045
0.1159 0.25903335 0.66500002 4284046167
0.11716667 0.25903335 0.66500002 4284112218
0.11807715 0.25825432 0.66300005 4284244063
0.11916001 0.25786477 0.66200006 4284375653
0.12096667 0.25903335 0.66500002 4284571745
0.12223333 0.25903335 0.66500002 4284505949
0.12312857 0.25825432 0.66300005 4284505941
0.12589237 0.26137048 0.671 4284440653
0.12717049 0.26137048 0.671 4284375632
0.12844858 0.26137048 0.671 4284507987
0.12953334 0.26098093 0.67000002 4284639069
0.13080953 0.26098093 0.67000002 4284704872
0.13208571 0.26098093 0.67000002 4284769895
0.13336191 0.26098093 0.67000002 4285031527
0.1346381 0.26098093 0.67000002 4285293925
0.13611715 0.26137048 0.671 4285163875
0.13719048 0.26098093 0.67000002 4285032282
0.13826001 0.26059142 0.66900003 4284900946
0.13953428 0.26059142 0.66900003 4284769886
0.14038762 0.25981238 0.66700006 4284835690
0.14250761 0.26137048 0.671 4284904055
0.14357142 0.26098093 0.67000002 4285894277
0.14484762 0.26098093 0.67000002 4286941545
0.1463419 0.26137048 0.671 4285027661
0.14784001 0.26176003 0.67200005 4283191635
0.14956382 0.26253906 0.67400002 4283522649
0.15040001 0.26176003 0.67200005 4283916629
0.15145428 0.26137048 0.671 4283589970
0.15273239 0.26137048 0.671 4283256105
0.15401047 0.26137048 0.671 4280747009
0.15552001 0.26176003 0.67200005 4278256131
0.39925143 0.49936953 1.2820001 4278322180
0.39730665 0.49391618 1.268 4278322689
0.39814571 0.49196857 1.263 4278387204
0.39928287 0.49041051 1.2590001 4278387463
0.40008575 0.4884629 1.2540001 4278387460
0.40086955 0.48651525 1.2490001 4278322177
0.40324858 0.48651525 1.2490001 4278256641
0.40432858 0.48495716 1.245 4278256641
0.40669999 0.48495716 1.245 4278256641
0.40742859 0.48300952 1.24 4278256641
0.4084686 0.48145145 1.2360001 4278321921
0.41082287 0.48145145 1.2360001 4278321921
0.41016859 0.47794574 1.2270001 4278321668
0.41250575 0.47794574 1.2270001 4278256135
0.4148429 0.47794574 1.2270001 4278256388
0.41582 0.47638765 1.223 4278257153
0.41814953 0.47638765 1.223 4278256897
0.41910386 0.47482955 1.2190001 4278256641
0.41969717 0.47288194 1.2140001 4278256385
0.42200956 0.47288194 1.2140001 4278256385
0.4229238 0.47132382 1.21 4278321921
0.4252286 0.47132382 1.21 4278453249
0.42612001 0.46976572 1.2060001 4278649857
0.42841718 0.46976572 1.2060001 4278452993
0.43071431 0.46976572 1.2060001 4278256641
0.43157527 0.46820763 1.202 4278256642
0.43386477 0.46820763 1.202 4278322178
0.43434 0.46625999 1.197 4278322178
0.43662003 0.46625999 1.197 4278322177
0.43743336 0.46470195 1.1930001 4278322177
0.43970576 0.46470195 1.1930001 4278321921
0.44049618 0.4631438 1.189 4278322177
0.44276097 0.4631438 1.189 4278387714
0.44352859 0.46158576 1.1850001 4278321924
0.44578573 0.46158576 1.1850001 4278256642
0.44653052 0.46002766 1.1810001 4278256641
0.44878006 0.46002766 1.1810001 4278256641
0.45102957 0.46002766 1.1810001 4278256641
0.45174384 0.45846951 1.177 4278256643
0.45398575 0.45846951 1.177 4278256645
0.45777816 0.46002766 1.1810001 4278256643
0.46002766 0.46002766 1.1810001 4278257153
0.37066001 0.35174003 0.90300006 4279832848
0.37155524 0.35096094 0.90100002 4279242758
0.37327144 0.35096094 0.90100002 4278654468
0.37373906 0.34979239 0.89800006 4278588674
0.37377718 0.3482343 0.89400005 4278522116
0.37044001 0.34356001 0.88200003 4278455814
0.36832288 0.3400543 0.87300003 4278454532
0.36998573 0.3400543 0.87300003 4278454275
0.37079719 0.33927524 0.87100005 4278519298
0.37245619 0.33927524 0.87100005 4278453505
0.37411526 0.33927524 0.87100005 4278453507
0.37491143 0.33849621 0.86900002 4278322693
0.37656668 0.33849621 0.86900002 4278257411
0.3782219 0.33849621 0.86900002 4278323201
0.37987715 0.33849621 0.86900002 4278388995
0.38153237 0.33849621 0.86900002 4278323717
0.38230574 0.33771718 0.86700004 4278323203
0.38395718 0.33771718 0.86700004 4278322689
0.38560858 0.33771718 0.86700004 4278322689
0.38726002 0.33771718 0.86700004 4278322690
0.38891146 0.33771718 0.86700004 4278322689
0.39056289 0.33771718 0.86700004 4278387457
0.3922143 0.33771718 0.86700004 4278453249
0.39295718 0.33693811 0.86500007 4278387969
0.39460477 0.33693811 0.86500007 4278322177
0.39625239 0.33693811 0.86500007 4278322178
0.39790004 0.33693811 0.86500007 4278322689
0.39816195 0.33576953 0.86200005 4278322945
0.39980385 0.33576953 0.86200005 4278322945
0.40144575 0.33576953 0.86200005 4278322945
0.40308765 0.33576953 0.86200005 4278323457
0.40472955 0.33576953 0.86200005 4278390274
0.40637144 0.33576953 0.86200005 4278456836
0.40706667 0.3349905 0.86000001 4278458375
0.40870476 0.3349905 0.86000001 4278524677
0.4093886 0.33421144 0.85800004 4278525444
0.41102287 0.33421144 0.85800004 4278524423
0.41073334 0.33265334 0.85400003 4278654475
0.40415144 0.32603145 0.83700001 4278850311
0.40380669 0.32447335 0.83300006 4278784004
0.40442002 0.32369429 0.83100003 4278783748
0.40404856 0.32213619 0.82700002 4278717955
0.40464288 0.32135716 0.82500005 4278652166
0.4062143 0.32135716 0.82500005 4278717449
0.4058086 0.31979904 0.82100004 4278783503
0.40638003 0.31902003 0.81900007 4278718485
0.39698192 0.31045049 0.79700005 4278653709
0.39850003 0.31045049 0.79700005 4278588676
0.39801049 0.30889237 0.79300004 4278587917
0.39952096 0.30889237 0.79300004 4278456343
0.40002 0.30811334 0.79100001 4278389261
0.40051144 0.3073343 0.78900003 4278389763
0.40201432 0.3073343 0.78900003 4278454532
0.40351716 0.3073343 0.78900003 4278388486
0.40502003 0.3073343 0.78900003 4278388227
0.40600762 0.30694479 0.78800005 4278389505
0.40750861 0.30694479 0.78800005 4278389249
0.40900955 0.30694479 0.78800005 4278388993
0.41103142 0.3073343 0.78900003 4278388993
0.4125343 0.3073343 0.78900003 4278324225
0.41351241 0.30694479 0.78800005 4278257409
0.41501337 0.30694479 0.78800005 4278258177
0.41651431 0.30694479 0.78800005 4278257161
0.41801524 0.30694479 0.78800005 4278322449
0.41951621 0.30694479 0.78800005 4278387723
0.42101717 0.30694479 0.78800005 4278322181
0.42144573 0.3061657 0.78600001 4278322186
0.42294285 0.3061657 0.78600001 4278322447
0.42444003 0.3061657 0.78600001 4278322184
0.42593715 0.3061657 0.78600001 4278322177
-0.32093334 0.22702859 0.58000004 4281742397
-0.32148287 0.22820286 0.583 4281938746
-0.32092193 0.2285943 0.58400005 4282069558
-0.31980953 0.2285943 0.58400005 4282201138
-0.31924286 0.22898573 0.58500004 4282267444
-0.31812859 0.22898573 0.58500004 4282330423
-0.31701431 0.22898573 0.58500004 4282393646
-0.30996001 0.22467999 0.574 4281677349
-0.30886665 0.22467999 0.574 4280956469
-0.30723715 0.22428857 0.57300001 4281615429
-0.30721429 0.22507145 0.57500005 4282271306
-0.30611905 0.22507145 0.57500005 4281610831
-0.3055543 0.22546287 0.57600003 4281019971
-0.30498573 0.22585429 0.57700002 4280692024
-0.30388668 0.22585429 0.57700002 4280298545
-0.30278763 0.22585429 0.57700002 4279969066
-0.30064288 0.22507145 0.57500005 4279705132
-0.29954764 0.22507145 0.57500005 4280294703
-0.29793331 0.22467999 0.574 4280894532
-0.29684001 0.22467999 0.574 4282275674
-0.29574665 0.22467999 0.574 4283656781
-0.29634857 0.22937715 0.58600003 4280824383
-0.29523239 0.22937715 0.58600003 4281281846
-0.2941162 0.22937715 0.58600003 4281611822
-0.29300001 0.22937715 0.58600003 4281942102
-0.29188383 0.22937715 0.58600003 4282602879
-0.29027146 0.22898573 0.58500004 4283203176
-0.28915715 0.22898573 0.58500004 4282272594
-0.28755051 0.2285943 0.58400005 4281344075
-0.28594762 0.22820286 0.583 4280819269
-0.28434858 0.22781144 0.58200002 4280360245
-0.28275335 0.22742002 0.58100003 4279965734
-0.28067717 0.22663717 0.57900006 4279505981
-0.27957433 0.22663717 0.57900006 4281739604
-0.27895239 0.22702859 0.58000004 4283987319
-0.27784765 0.22702859 0.58000004 4284511130
-0.27960572 0.22937715 0.58600003 4284955808
-0.27848953 0.22937715 0.58600003 4283777703
-0.27737334 0.22937715 0.58600003 4282599534
-0.27625716 0.22937715 0.58600003 4282068789
-0.27608001 0.23016 0.588 4281479482
-0.27496001 0.23016 0.588 4281216319
-0.27337429 0.22976857 0.58700001 4280887862
-0.2722562 0.22976857 0.58700001 4281679662
-0.27159998 0.23016 0.588 4282405939
-0.27002001 0.22976857 0.58700001 4281749817
-0.26890191 0.22976857 0.58700001 4281093690
-0.21650667 0.25208002 0.64400005 4282335819
-0.21461144 0.25129715 0.64200002 4282073423
-0.21338858 0.25129715 0.64200002 4281875532
-0.21216571 0.25129715 0.64200002 4281744457
-0.21094286 0.25129715 0.64200002 4281611583
-0.20972 0.25129715 0.64200002 4281414454
-0.20849715 0.25129715 0.64200002 4281283123
-0.20695144 0.25090572 0.64100003 4281151537
-0.20573048 0.25090572 0.64100003 4281084462
-0.20450954 0.25090572 0.64100003 4280822060
-0.20424001 0.25208002 0.64400005 4280625448
-0.20332858 0.25247145 0.64500004 4280428581
-0.20116 0.25129715 0.64200002 4280230689
-0.20087144 0.25247145 0.64500004 4279965982
-0.19933335 0.25208002 0.64400005 4279702293
-0.19810669 0.25208002 0.64400005 4279702284
-0.19688001 0.25208002 0.64400005 4279702550
-0.19565335 0.25208002 0.64400005 4279768865
-0.16356096 0.25560287 0.65300006 4280755772
-0.16157143 0.2544286 0.65000004 4280558134
-0.15984 0.25364572 0.648 4280624177
-0.15860571 0.25364572 0.648 4280625466
-0.15712857 0.25325426 0.64700001 4280427076
-0.15613714 0.25364572 0.648 4280163889
-0.15490285 0.25364572 0.648 4280031775
-0.15343143 0.25325426 0.64700001 4279900700
-0.15219904 0.25325426 0.64700001 4279637273
-0.1512 0.25364572 0.648 4279373850
-0.14973429 0.25325426 0.64700001 4279374363
-0.1485019 0.25325426 0.64700001 4279310373
-0.14726953 0.25325426 0.64700001 4279308335
-0.14581144 0.25286287 0.64600003 4279307558
-0.14435716 0.25247145 0.64500004 4279242269
-0.14312857 0.25247145 0.64500004 4279176727
-0.14234 0.25325426 0.64700001 4279111441
-0.14132571 0.25364572 0.648 4279112459
-0.13987523 0.25325426 0.64700001 4279045637
-0.13842857 0.25286287 0.64600003 4279046408
-0.13741048 0.25325426 0.64700001 4278979083
-0.13638857 0.25364572 0.648 4278979095
-0.13515429 0.25364572 0.648 4279045155
-0.13330001 0.25247145 0.64500004 4279111186
-0.13207144 0.25247145 0.64500004 4278913281
-0.13084286 0.25247145 0.64500004 4278781973
-0.12961428 0.25247145 0.64500004 4278716713
-0.12838572 0.25247145 0.64500004 4278651417
-0.12853715 0.25521144 0.65200001 4278782474
-0.12729524 0.25521144 0.65200001 4278848009
-0.12605333 0.25521144 0.65200001 4278847752
-0.12462 0.25481999 0.65100002 4278913030
-0.12319048 0.2544286 0.65000004 4278847492
-0.12195238 0.2544286 0.65000004 4278781954
-0.12071429 0.2544286 0.65000004 4278781697
-0.11910857 0.25364572 0.648 4278716161
-0.11769238 0.25325426 0.64700001 4278782466
-0.11628 0.25286287 0.64600003 4278782721
-0.11487143 0.25247145 0.64500004 4278716161
-0.11346667 0.25208002 0.64400005 4278650625
-0.11171715 0.25090572 0.64100003 4278585601
-0.11049619 0.25090572 0.64100003 4278586115
-0.10910477 0.2505143 0.64000005 4278650886
-0.10788572 0.2505143 0.64000005 4278715656
-0.10666667 0.2505143 0.64000005 4278716170
-0.10528287 0.25012287 0.63900006 4278651400
-0.10406572 0.25012287 0.63900006 4278717191
-0.10268762 0.24973144 0.63800001 4278717708
-0.10115429 0.24894859 0.63600004 4279044370
-0.099942856 0.24894859 0.63600004 4279311884
-0.098576196 0.24855715 0.63500005 4280694790
-0.097060002 0.24777427 0.63300002 4282143258
-0.095702864 0.24738286 0.63200003 4282474031
-0.094349533 0.24699143 0.63100004 4282870335
-0.092852384 0.24620858 0.62900001 4283657296
-0.091508567 0.24581714 0.62800002 4284510041
-0.090168573 0.24542573 0.62700003 4284640354
-0.088832386 0.24503429 0.62600005 4284836178
-0.087640002 0.24503429 0.62600005 4285097795
-0.086585723 0.24542573 0.62700003 4285425222
-0.085255243 0.24503429 0.62600005 4285490250
-0.084062859 0.24503429 0.62600005 4285555275
-0.083002865 0.24542573 0.62700003 4285424461
-0.081939049 0.24581714 0.62800002 4285293902
-0.080871426 0.24620858 0.62900001 4285163088
-0.079673328 0.24620858 0.62900001 4285097801
-0.078475237 0.24620858 0.62900001 4285228867
-0.077277139 0.24620858 0.62900001 4285425732
-0.075958095 0.24581714 0.62800002 4285228357
-0.074761905 0.24581714 0.62800002 4285031235
-0.073565714 0.24581714 0.62800002 4285096513
-0.072139047 0.24503429 0.62600005 4285227588
-0.070946671 0.24503429 0.62600005 4285096264
-0.069754288 0.24503429 0.62600005 4284964937
-0.068561912 0.24503429 0.62600005 4284964938
-0.067369528 0.24503429 0.62600005 4284965197
-0.066177152 0.24503429 0.62600005 4284964689
-0.064984769 0.24503429 0.62600005 4285030227
-0.063894287 0.24542573 0.62700003 4285161302
-0.062700003 0.24542573 0.62700003 4285293652
-0.06072095 0.2422943 0.61900002 4285227859
-0.059638094 0.24268572 0.62 4285162325
-0.058645718 0.24346858 0.62200004 4285162583
-0.058292385 0.24699143 0.63100004 4285162837
-0.05709048 0.24699143 0.63100004 4285097300
-0.05571143 0.24620858 0.62900001 4285032020
-0.054513335 0.24620858 0.62900001 4284835412
-0.053315237 0.24620858 0.62900001 4284638800
-0.052034285 0.24581714 0.62800002 4284769612
-0.050838094 0.24581714 0.62800002 4284900684
-0.049641903 0.24581714 0.62800002 4284768845
-0.048368573 0.24542573 0.62700003 4284637511
-0.047174286 0.24542573 0.62700003 4284571969
-0.045980003 0.24542573 0.62700003 4284506689
-0.044785716 0.24542573 0.62700003 4284506177
-0.043591432 0.24542573 0.62700003 4284571201
-0.042464763 0.24581714 0.62800002 4284439873
-0.041334286 0.24620858 0.62900001 4284374081
-0.040136192 0.24620858 0.62900001 4284242753
-0.038938098 0.24620858 0.62900001 4284111416
-0.03774 0.24620858 0.62900001 4283849007
-0.036541905 0.24620858 0.62900001 4283652142
-0.035343811 0.24620858 0.62900001 4283388205
-0.034145713 0.24620858 0.62900001 4283190572
-0.032947619 0.24620858 0.62900001 4282598955
-0.031699046 0.24581714 0.62800002 4282071078
-0.030502856 0.24581714 0.62800002 4281349409
-0.029306667 0.24581714 0.62800002 4280693275
-0.028110476 0.24581714 0.62800002 4279764757
-0.02687143 0.24542573 0.62700003 4278913035
-0.025636191 0.24503429 0.62600005 4278847746
-0.024443811 0.24503429 0.62600005 4278782472
-0.02314 0.24386001 0.62300003 4278716943
-0.022094287 0.24542573 0.62700003 4278651145
-0.020866668 0.24503429 0.62600005 4278781955
-0.019674286 0.24503429 0.62600005 4278978309
-0.018481907 0.24503429 0.62600005 4278912520
-0.016709523 0.23681429 0.60500002 4278912520
-0.015557144 0.23681429 0.60500002 4278848009
-0.014428572 0.23720571 0.60600001 4278781970
-0.013274285 0.23720571 0.60600001 4278716187
-0.01212 0.23720571 0.60600001 4278650384
-0.010983811 0.23759715 0.60700005 4278781701
-0.0098276203 0.23759715 0.60700005 4278913029
-0.0087000001 0.23838001 0.60900003 4278848262
-0.0075152386 0.23759715 0.60700005 4278717959
-0.0063485713 0.23720571 0.60600001 4278652425
-0.0051942859 0.23720571 0.60600001 4278652423
-0.00404 0.23720571 0.60600001 4278586885
-0.0028857142 0.23720571 0.60600001 4278586890
-0.0017314287 0.23720571 0.60600001 4278586640
-0.00057714287 0.23720571 0.60600001 4278652171
0.00057714287 0.23720571 0.60600001 4278717958
0.0017314287 0.23720571 0.60600001 4278784005
0.0028904765 0.23759715 0.60700005 4278848773
0.0040466674 0.23759715 0.60700005 4278848261
0.0052028573 0.23759715 0.60700005 4278913541
0.0063590482 0.23759715 0.60700005 4279044613
0.0075152386 0.23759715 0.60700005 4278979077
0.008671429 0.23759715 0.60700005 4278913552
0.0098276203 0.23759715 0.60700005 4278979099
0.010983811 0.23759715 0.60700005 4279044879
0.01216 0.23798859 0.60800004 4278979587
0.013340001 0.23838001 0.60900003 4278914565
0.014547618 0.23916286 0.611 4278783496
0.015711429 0.23916286 0.611 4278652439
0.016875237 0.23916286 0.611 4278783783
0.018039048 0.23916286 0.611 4278980631
0.019202856 0.23916286 0.611 4278914567
0.020300001 0.23838001 0.60900003 4278849288
0.021530475 0.23916286 0.611 4278914825
0.022694286 0.23916286 0.611 4279045897
0.023858096 0.23916286 0.611 4279111177
0.025062859 0.2395543 0.61200005 4279242251
0.026271429 0.23994572 0.61300004 4279045902
0.027483812 0.24033715 0.61400002 4278850318
0.028653333 0.24033715 0.61400002 4278915599
0.029871428 0.24072857 0.61500001 4279046412
0.031042857 0.24072857 0.61500001 4279111434
0.032214288 0.24072857 0.61500001 4279242252
0.033385713 0.24072857 0.61500001 4279307790
0.034557141 0.24072857 0.61500001 4279307791
0.035670478 0.24033715 0.61400002 4279308048
0.036840003 0.24033715 0.61400002 4279242770
0.038009524 0.24033715 0.61400002 4279309332
0.039179049 0.24033715 0.61400002 4279375374
0.040414285 0.24072857 0.61500001 4279441161
0.041585714 0.24072857 0.61500001 4279506968
0.042757142 0.24072857 0.61500001 4279572775
0.044000003 0.24112003 0.61600006 4279573271
0.045246668 0.24151145 0.61700004 4279638791
0.046421908 0.24151145 0.61700004 4279704585
0.047674287 0.24190287 0.61800003 4279769868
0.048930477 0.2422943 0.61900002 4279900689
0.050109524 0.2422943 0.61900002 4280032278
0.051371425 0.24268572 0.62 4280161803
0.05255238 0.24268572 0.62 4280030465
0.053733334 0.24268572 0.62 4279900937
0.055091433 0.24346858 0.62200004 4279899665
0.056276195 0.24346858 0.62200004 4279964447
0.057553336 0.24386001 0.62300003 4279899950
0.058834285 0.24425144 0.62400001 4279835169
0.060119048 0.24464285 0.625 4280162836
0.061407622 0.24503429 0.62600005 4280425228
0.062600002 0.24503429 0.62600005 4280294404
0.063894287 0.24542573 0.62700003 4280163588
0.065192387 0.24581714 0.62800002 4279966724
0.066282853 0.24542573 0.62700003 4279835397
0.067584768 0.24581714 0.62800002 4279638279
0.068890475 0.24620858 0.62900001 4279506184
0.070088573 0.24620858 0.62900001 4279834378
0.071740001 0.24777427 0.63300002 4280228114
0.072945714 0.24777427 0.63300002 4280031258
0.074385718 0.24855715 0.63500005 4279834389
0.075595245 0.24855715 0.63500005 4279769104
0.076804765 0.24855715 0.63500005 4279769617
0.078014292 0.24855715 0.63500005 4279834642
0.079223812 0.24855715 0.63500005 4279899918
0.080813333 0.24973144 0.63800001 4279768586
0.08215715 0.25012287 0.63900006 4279637259
0.083504766 0.2505143 0.64000005 4279899404
0.084988572 0.25129715 0.64200002 4280161802
0.086211428 0.25129715 0.64200002 4280227849
0.087434284 0.25129715 0.64200002 4280294922
0.088933334 0.25208002 0.64400005 4280295436
0.090160005 0.25208002 0.64400005 4280295958
0.091528572 0.25247145 0.64500004 4280624929
0.093044758 0.25325426 0.64700001 4280954149
0.094277143 0.25325426 0.64700001 4281085737
0.096100003 0.25481999 0.65100002 4281282861
0.097639054 0.25560287 0.65300006 4281546546
0.099488571 0.25716859 0.65700001 4281810233
0.10074 0.25716859 0.65700001 4281810241
0.10214667 0.25756001 0.65800005 4281875777
0.10340001 0.25756001 0.65800005 4281941825
0.10465334 0.25756001 0.65800005 4282074174
0.10622857 0.25834286 0.66000003 4282468923
0.10748572 0.25834286 0.66000003 4282928960
0.10956667 0.26030001 0.66500002 4283126342
0.11083333 0.26030001 0.66500002 4283323721
0.11176286 0.25951716 0.66300005 4283455308
0.11336667 0.26030001 0.66500002 4283652175
0.11463334 0.26030001 0.66500002 4283979859
0.1159 0.26030001 0.66500002 4284308054
0.11681429 0.25951716 0.66300005 4284308825
0.11789906 0.25912574 0.66200006 4284310114
0.11916001 0.25912574 0.66200006 4284441196
0.12060287 0.25951716 0.66300005 4284637798
0.12186572 0.25951716 0.66300005 4284571233
0.12312857 0.25951716 0.66300005 4284439901
0.12439144 0.25951716 0.66300005 4284440154
0.12603334 0.26030001 0.66500002 4284375641
0.12806572 0.26186574 0.66900003 4284638297
0.12876 0.26069143 0.66600001 4284900966
0.13022383 0.26108289 0.66700006 4284835187
0.1314943 0.26108289 0.66700006 4284704110
0.13256571 0.26069143 0.66600001 4284703850
0.13403524 0.26108289 0.66700006 4284704616
0.13571143 0.26186574 0.66900003 4284770151
0.13657621 0.26108289 0.66700006 4284901477
0.13764 0.26069143 0.66600001 4284704612
0.13870001 0.26030001 0.66500002 4284507745
0.13954572 0.25951716 0.66300005 4284638559
0.1405962 0.25912574 0.66200006 4284704109
0.14185715 0.25912574 0.66200006 4286023036
0.14311811 0.25912574 0.66200006 4287272289
0.14437905 0.25912574 0.66200006 4285427015
0.14564002 0.25912574 0.66200006 4283584336
0.14912002 0.26304001 0.67200005 4283849305
0.15040001 0.26304001 0.67200005 4284113489
0.15145428 0.26264858 0.671 4283063626
0.15273239 0.26264858 0.671 4282071077
0.15401047 0.26264858 0.671 4280156673
0.15228 0.25756001 0.65800005 4278321412
0.39730665 0.49633142 1.268 4278387458
0.39814571 0.49437431 1.263 4278387202
0.39928287 0.49280861 1.2590001 4278387458
0.40008575 0.49085146 1.2540001 4278322177
0.40086955 0.48889431 1.2490001 4278322177
0.40324858 0.48889431 1.2490001 4278256641
0.40432858 0.48732856 1.245 4278256385
0.40669999 0.48732856 1.245 4278256385
0.40742859 0.48537144 1.24 4278256385
0.4084686 0.48380575 1.2360001 4278321665
0.40949339 0.48224005 1.2320001 4278321665
0.41016859 0.4802829 1.2270001 4278321671
0.41250575 0.4802829 1.2270001 4278387213
0.4148429 0.4802829 1.2270001 4278453255
0.41582 0.47871715 1.223 4278322433
0.41814953 0.47871715 1.223 4278257409
0.41910386 0.47715145 1.2190001 4278256385
0.42142576 0.47715145 1.2190001 4278256641
0.42200956 0.47519431 1.2140001 4278256385
0.4229238 0.47362858 1.21 4278321921
0.4252286 0.47362858 1.21 4278387457
0.42612001 0.47206289 1.2060001 4278453249
0.42841718 0.47206289 1.2060001 4278321921
0.43071431 0.47206289 1.2060001 4278256642
0.43157527 0.47049713 1.202 4278256643
0.43386477 0.47049713 1.202 4278256643
0.43434 0.46854001 1.197 4278256643
0.43662003 0.46854001 1.197 4278256898
0.43743336 0.46697432 1.1930001 4278256641
0.43823144 0.46540859 1.189 4278321921
0.44049618 0.46540859 1.189 4278321921
0.44276097 0.46540859 1.189 4278322177
0.44352859 0.4638429 1.1850001 4278256641
0.44578573 0.4638429 1.1850001 4278256641
0.44653052 0.46227717 1.1810001 4278256385
0.44878006 0.46227717 1.1810001 4278321921
0.44950193 0.46071142 1.177 4278321921
0.45174384 0.46071142 1.177 4278257413
0.45398575 0.46071142 1.177 4278256393
0.45622763 0.46071142 1.177 4278256901
0.46002766 0.46227717 1.1810001 4278256897
0.37066001 0.35346001 0.90300006 4279308817
0.37031811 0.3515029 0.89800006 4278980612
0.37202859 0.3515029 0.89800006 4278719491
0.3633343 0.34171715 0.87300003 4278587651
0.36499715 0.34171715 0.87300003 4278521348
0.36666 0.34171715 0.87300003 4278455557
0.36832288 0.34171715 0.87300003 4278454019
0.36998573 0.34171715 0.87300003 4278453761
0.3699457 0.34015143 0.86900002 4278519297
0.37160096 0.34015143 0.86900002 4278453249
0.37325621 0.34015143 0.86900002 4278387717
0.37404856 0.33936858 0.86700004 4278387977
0.3757 0.33936858 0.86700004 4278322437
0.37735146 0.33936858 0.86700004 4278388481
0.3790029 0.33936858 0.86700004 4278389505
0.38065431 0.33936858 0.86700004 4278388737
0.38230574 0.33936858 0.86700004 4278388225
0.38395718 0.33936858 0.86700004 4278322689
0.38560858 0.33936858 0.86700004 4278322946
0.38726002 0.33936858 0.86700004 4278322691
0.38891146 0.33936858 0.86700004 4278322690
0.38966191 0.33858573 0.86500007 4278322177
0.39130956 0.33858573 0.86500007 4278321921
0.39295718 0.33858573 0.86500007 4278321921
0.39323619 0.33741143 0.86200005 4278256642
0.39625239 0.33858573 0.86500007 4278256643
0.39790004 0.33858573 0.86500007 4278322434
0.39816195 0.33741143 0.86200005 4278322945
0.39980385 0.33741143 0.86200005 4278322689
0.40144575 0.33741143 0.86200005 4278322945
0.40215239 0.33662856 0.86000001 4278323714
0.40472955 0.33741143 0.86200005 4278455555
0.40637144 0.33741143 0.86200005 4278522120
0.40706667 0.33662856 0.86000001 4278523662
0.40870476 0.33662856 0.86000001 4278590474
0.4093886 0.33584574 0.85800004 4278590214
0.41006479 0.33506289 0.85600007 4278590218
0.40640476 0.33075714 0.84500003 4278654478
0.40511715 0.32840857 0.83900005 4278786569
0.40380669 0.32606003 0.83300006 4278718981
0.40442002 0.32527715 0.83100003 4278719493
0.40404856 0.32371143 0.82700002 4278587910
0.40366191 0.3221457 0.82300001 4278522117
0.40522951 0.3221457 0.82300001 4278717444
0.40482002 0.32058004 0.81900007 4278913288
0.40638003 0.32058004 0.81900007 4278783244
0.40794003 0.32058004 0.81900007 4278719750
0.39650002 0.31040287 0.79300004 4278653697
0.39801049 0.31040287 0.79300004 4278653204
0.39851332 0.30962002 0.79100001 4278586664
0.39900857 0.30883718 0.78900003 4278454806
0.40051144 0.30883718 0.78900003 4278455300
0.40150478 0.30844572 0.78800005 4278455299
0.40300575 0.30844572 0.78800005 4278388994
0.40450668 0.30844572 0.78800005 4278388481
0.40600762 0.30844572 0.78800005 4278388993
0.40750861 0.30844572 0.78800005 4278388993
0.40900955 0.30844572 0.78800005 4278454273
0.41051048 0.30844572 0.78800005 4278585089
0.41201144 0.30844572 0.78800005 4278454017
0.41351241 0.30844572 0.78800005 4278323201
0.41501337 0.30844572 0.78800005 4278322945
0.41651431 0.30844572 0.78800005 4278322448
0.41695428 0.30766287 0.78600001 4278387743
0.41951621 0.30844572 0.78800005 4278387475
0.41994858 0.30766287 0.78600001 4278518535
0.42144573 0.30766287 0.78600001 4278584334
0.42294285 0.30766287 0.78600001 4278453269
0.42444003 0.30766287 0.78600001 4278322187
0.42593715 0.30766287 0.78600001 4278322177
-0.32148668 0.22852668 0.58100003 4281283643
-0.32038 0.22852668 0.58100003 4281415487
-0.31927335 0.22852668 0.58100003 4281546300
-0.31871429 0.22892001 0.58200002 4281546296
-0.31815141 0.22931334 0.583 4281611832
-0.31704095 0.22931334 0.583 4281609529
-0.31701431 0.23010001 0.58500004 4281610294
-0.30996001 0.22577333 0.574 4281807667
-0.30886665 0.22577333 0.574 4282005824
-0.30723715 0.22538 0.57300001 4282663246
-0.30667999 0.22577333 0.574 4283318856
-0.30558667 0.22577333 0.574 4282334786
-0.30502382 0.22616668 0.57500005 4281350199
-0.30392858 0.22616668 0.57500005 4280690219
-0.30283338 0.22616668 0.57500005 4280101417
-0.30121332 0.22577333 0.574 4279637798
-0.30012 0.22577333 0.574 4279244845
-0.29902667 0.22577333 0.574 4280031540
-0.29793331 0.22577333 0.574 4280826690
-0.29684001 0.22577333 0.574 4281479760
-0.29574665 0.22577333 0.574 4282201155
-0.29634857 0.23049334 0.58600003 4281416254
-0.28969049 0.22616668 0.57500005 4281547320
-0.2936143 0.23010001 0.58500004 4281809715
-0.29250002 0.23010001 0.58500004 4282138441
-0.29138574 0.23010001 0.58500004 4282403424
-0.29027146 0.23010001 0.58500004 4282662488
-0.28816855 0.22931334 0.583 4281807697
-0.28656572 0.22892001 0.58200002 4280952134
-0.28496668 0.22852668 0.58100003 4280291644
-0.28386 0.22852668 0.58100003 4279702055
-0.28226671 0.22813335 0.58000004 4279505683
-0.28067717 0.22774002 0.57900006 4279309355
-0.27909142 0.22734667 0.57800001 4281548355
-0.27847144 0.22774002 0.57900006 4283780443
-0.27736861 0.22774002 0.57900006 4283587956
-0.27435714 0.22616668 0.57500005 4283382903
-0.27278665 0.22577333 0.574 4282987643
-0.27169335 0.22577333 0.574 4282594908
-0.27059999 0.22577333 0.574 4282071358
-0.26950666 0.22577333 0.574 4281545536
-0.27496001 0.23128 0.588 4281740867
-0.27337429 0.23088667 0.58700001 4282003516
-0.2722562 0.23088667 0.58700001 4283062837
-0.24402 0.22852668 0.58100003 4280883245
-0.24333143 0.22892001 0.58200002 4280487448
-0.24222288 0.22892001 0.58200002 4280162075
-0.21650667 0.25330669 0.64400005 4282336072
-0.21427715 0.25212666 0.64100003 4282073932
-0.21305621 0.25212666 0.64100003 4281876040
-0.21183525 0.25212666 0.64100003 4281743940
-0.21061429 0.25212666 0.64100003 4281677630
-0.20906669 0.25173333 0.64000005 4281480249
-0.20784764 0.25173333 0.64000005 4281348663
-0.20662859 0.25173333 0.64000005 4281282101
-0.20508859 0.25134 0.63900006 4281281842
-0.20387144 0.25134 0.63900006 4280953903
-0.20297144 0.25173333 0.64000005 4280690732
-0.20206763 0.25212666 0.64100003 4280428841
-0.20053335 0.25173333 0.64000005 4280164385
-0.19962572 0.25212666 0.64100003 4279834904
-0.19840477 0.25212666 0.64100003 4279570959
-0.19749144 0.25251999 0.64200002 4279699206
-0.19626857 0.25251999 0.64200002 4279830802
-0.19565335 0.25330669 0.64400005 4279438109
-0.16157143 0.25566667 0.65000004 4280689962
-0.15836 0.25251999 0.64200002 4280624938
-0.15787144 0.25370002 0.64500004 4280559918
-0.15688573 0.25409335 0.64600003 4280427570
-0.15565524 0.25409335 0.64600003 4280294948
-0.15442477 0.25409335 0.64600003 4280097558
-0.15319429 0.25409335 0.64600003 4279901202
-0.15196382 0.25409335 0.64600003 4279702798
-0.15073334 0.25409335 0.64600003 4279570963
-0.14950287 0.25409335 0.64600003 4279440152
-0.14804286 0.25370002 0.64500004 4279309088
-0.1468143 0.25370002 0.64500004 4279309097
-0.14558572 0.25370002 0.64500004 4279374114
-0.14413334 0.25330669 0.64400005 4279308059
-0.14290668 0.25330669 0.64400005 4279308310
-0.14168 0.25330669 0.64400005 4279177489
-0.14067143 0.25370002 0.64500004 4279112203
-0.13944286 0.25370002 0.64500004 4279111429
-0.13821431 0.25370002 0.64500004 4279110919
-0.13698572 0.25370002 0.64500004 4279044362
-0.13617809 0.25448665 0.64700001 4278979088
-0.13473713 0.25409335 0.64600003 4279110935
-0.13330001 0.25370002 0.64500004 4279307020
-0.13207144 0.25370002 0.64500004 4279043330
-0.13084286 0.25370002 0.64500004 4278848015
-0.12961428 0.25370002 0.64500004 4278783003
-0.12758954 0.25212666 0.64100003 4278782737
-0.12636858 0.25212666 0.64100003 4278913800
-0.12514763 0.25212666 0.64100003 4279110151
-0.12566668 0.25566667 0.65000004 4279043334
-0.12442858 0.25566667 0.65000004 4278978565
-0.12319048 0.25566667 0.65000004 4278978564
-0.12157714 0.25487998 0.648 4278978563
-0.12034286 0.25487998 0.648 4278912514
-0.11892476 0.25448665 0.64700001 4278912775
-0.11769238 0.25448665 0.64700001 4278848011
-0.11628 0.25409335 0.64600003 4278848262
-0.11487143 0.25370002 0.64500004 4278847234
-0.11311429 0.25251999 0.64200002 4278912769
-0.11154287 0.25173333 0.64000005 4278781697
-0.11032382 0.25173333 0.64000005 4278716166
-0.10910477 0.25173333 0.64000005 4278650635
-0.10788572 0.25173333 0.64000005 4278650378
-0.10666667 0.25173333 0.64000005 4278584841
-0.10528287 0.25134 0.63900006 4278584583
-0.10406572 0.25134 0.63900006 4278453510
-0.10284858 0.25134 0.63900006 4278322184
-0.10147239 0.25094667 0.63800001 4278518793
-0.099942856 0.25016004 0.63600004 4278780939
-0.098576196 0.24976669 0.63500005 4278650125
-0.096906669 0.24858668 0.63200003 4278520082
-0.095702864 0.24858668 0.63200003 4279504408
-0.094349533 0.24819335 0.63100004 4280493861
-0.092852384 0.24740668 0.62900001 4282138930
-0.091508567 0.24701335 0.62800002 4283844414
-0.090168573 0.24662001 0.62700003 4284304714
-0.088832386 0.24622668 0.62600005 4284832585
-0.087640002 0.24622668 0.62600005 4285360712
-0.086447619 0.24622668 0.62600005 4285885254
-0.085255243 0.24622668 0.62600005 4286016837
-0.084062859 0.24622668 0.62600005 4286212939
-0.082870483 0.24622668 0.62600005 4285950290
-0.0816781 0.24622668 0.62600005 4285754198
-0.080614291 0.24662001 0.62700003 4285492570
-0.079293333 0.24622668 0.62600005 4285230929
-0.07785143 0.24544001 0.62400001 4285559113
-0.076540001 0.24504668 0.62300003 4285886028
-0.075353332 0.24504668 0.62300003 4285623376
-0.074285716 0.24544001 0.62400001 4285360202
-0.073214285 0.24583334 0.625 4285556036
-0.071908571 0.24544001 0.62400001 4285818442
-0.070720002 0.24544001 0.62400001 4285556816
-0.069642857 0.24583334 0.625 4285294157
-0.068452381 0.24583334 0.625 4285228106
-0.067261904 0.24583334 0.625 4285162061
-0.066071428 0.24583334 0.625 4285227088
-0.064880952 0.24583334 0.625 4285292626
-0.06297715 0.24308001 0.61800003 4285358164
-0.061900001 0.24347334 0.61900002 4285424724
-0.06072095 0.24347334 0.61900002 4285358933
-0.059638094 0.24386667 0.62 4285293397
-0.058645718 0.24465334 0.62200004 4285294166
-0.057460956 0.24465334 0.62200004 4285359702
-0.056638099 0.24622668 0.62600005 4285294167
-0.05544572 0.24622668 0.62600005 4285294678
-0.054253336 0.24622668 0.62600005 4285164117
-0.053145714 0.24662001 0.62700003 4285032787
-0.051951431 0.24662001 0.62700003 4285032529
-0.050757144 0.24662001 0.62700003 4285097041
-0.04956286 0.24662001 0.62700003 4284965713
-0.048291434 0.24622668 0.62600005 4284834381
-0.04709905 0.24622668 0.62600005 4284637769
-0.04590667 0.24622668 0.62600005 4284506440
-0.044714291 0.24622668 0.62600005 4284440904
-0.043521907 0.24622668 0.62600005 4284440649
-0.042329527 0.24622668 0.62600005 4284440650
-0.041268572 0.24701335 0.62800002 4284505925
-0.040008575 0.24662001 0.62700003 4284374593
-0.038814288 0.24662001 0.62700003 4284243002
-0.037620004 0.24662001 0.62700003 4284045876
-0.036483813 0.24701335 0.62800002 4283849008
-0.035287622 0.24701335 0.62800002 4283585068
-0.034091428 0.24701335 0.62800002 4283323182
-0.032895237 0.24701335 0.62800002 4282860591
-0.031648573 0.24662001 0.62700003 4282399779
-0.030454287 0.24662001 0.62700003 4281609751
-0.02926 0.24662001 0.62700003 4280824341
-0.028065715 0.24662001 0.62700003 4279895828
-0.026828572 0.24622668 0.62600005 4279043851
-0.025595238 0.24583334 0.625 4278847491
-0.024326667 0.24504668 0.62300003 4278716678
-0.02314 0.24504668 0.62300003 4278520585
-0.022094287 0.24662001 0.62700003 4278389255
-0.020866668 0.24622668 0.62600005 4278650116
-0.019674286 0.24622668 0.62600005 4278912262
-0.018481907 0.24622668 0.62600005 4278912521
-0.016709523 0.23796667 0.60500002 4278978055
-0.015557144 0.23796667 0.60500002 4278848006
-0.014404762 0.23796667 0.60500002 4278782218
-0.013274285 0.23836 0.60600001 4278650638
-0.01212 0.23836 0.60600001 4278584842
-0.010983811 0.23875335 0.60700005 4278847238
-0.0098276203 0.23875335 0.60700005 4279109639
-0.008671429 0.23875335 0.60700005 4278848520
-0.0075152386 0.23875335 0.60700005 4278651911
-0.0063485713 0.23836 0.60600001 4278586629
-0.0051942859 0.23836 0.60600001 4278520836
-0.00404 0.23836 0.60600001 4278520835
-0.0028857142 0.23836 0.60600001 4278521094
-0.0017314287 0.23836 0.60600001 4278521353
-0.00057714287 0.23836 0.60600001 4278521095
0.00057714287 0.23836 0.60600001 4278651398
0.0017342858 0.23875335 0.60700005 4278848774
0.0028904765 0.23875335 0.60700005 4278848518
0.0040466674 0.23875335 0.60700005 4278848260
0.0052028573 0.23875335 0.60700005 4278979331
0.0063590482 0.23875335 0.60700005 4279110148
0.0075152386 0.23875335 0.60700005 4278978564
0.008671429 0.23875335 0.60700005 4278848010
0.0098276203 0.23875335 0.60700005 4278848272
0.010983811 0.23875335 0.60700005 4278914057
0.012180001 0.23954001 0.60900003 4278914307
0.013383809 0.24032667 0.611 4278914308
0.014547618 0.24032667 0.611 4278848774
0.015711429 0.24032667 0.611 4278783501
0.016875237 0.24032667 0.611 4278914837
0.018039048 0.24032667 0.611 4279111692
0.019202856 0.24032667 0.611 4278979844
0.020300001 0.23954001 0.60900003 4278914308
0.021530475 0.24032667 0.611 4278914565
0.022694286 0.24032667 0.611 4278979845
0.023858096 0.24032667 0.611 4278979845
0.025062859 0.24072002 0.61200005 4278979847
0.026271429 0.24111335 0.61300004 4278849033
0.027483812 0.24150668 0.61400002 4278784268
0.028653333 0.24150668 0.61400002 4278914832
0.029871428 0.24190001 0.61500001 4279111947
0.030992381 0.24150668 0.61400002 4279243015
0.032214288 0.24190001 0.61500001 4279373577
0.033385713 0.24190001 0.61500001 4279438603
0.034557141 0.24190001 0.61500001 4279570443
0.035670478 0.24150668 0.61400002 4279505420
0.036840003 0.24150668 0.61400002 4279439630
0.037947621 0.24111335 0.61300004 4279506192
0.039179049 0.24150668 0.61400002 4279571979
0.040414285 0.24190001 0.61500001 4279572486
0.041585714 0.24190001 0.61500001 4279572495
0.042757142 0.24190001 0.61500001 4279571736
0.044071428 0.24268667 0.61700004 4279638543
0.04532 0.24308001 0.61800003 4279769606
0.04657238 0.24347334 0.61900002 4279901193
0.047751427 0.24347334 0.61900002 4279900939
0.048930477 0.24347334 0.61900002 4279900687
0.050109524 0.24347334 0.61900002 4279901204
0.051371425 0.24386667 0.62 4279965197
0.052721906 0.24465334 0.62200004 4279899398
0.053906672 0.24465334 0.62200004 4279899400
0.055091433 0.24465334 0.62200004 4279899659
0.056457143 0.24544001 0.62400001 4279899923
0.057738096 0.24583334 0.625 4280031258
0.058928572 0.24583334 0.625 4280162836
0.060119048 0.24583334 0.625 4280358670
0.061309524 0.24583334 0.625 4280621321
0.062600002 0.24622668 0.62600005 4280359940
0.063792385 0.24622668 0.62600005 4280163076
0.065192387 0.24701335 0.62800002 4280032004
0.06638857 0.24701335 0.62800002 4279900677
0.067584768 0.24701335 0.62800002 4279638022
0.068780951 0.24701335 0.62800002 4279440646
0.070088573 0.24740668 0.62900001 4279506439
0.071626663 0.24858668 0.63200003 4279571981
0.072830476 0.24858668 0.63200003 4279506452
0.074268572 0.24937335 0.634 4279506447
0.075476192 0.24937335 0.634 4279374346
0.076804765 0.24976669 0.63500005 4279310604
0.078014292 0.24976669 0.63500005 4279571727
0.079348572 0.25016004 0.63600004 4279899404
0.080560006 0.25016004 0.63600004 4279899401
0.08215715 0.25134 0.63900006 4279964939
0.083504766 0.25173333 0.64000005 4280161550
0.084856197 0.25212666 0.64100003 4280424460
0.086211428 0.25251999 0.64200002 4280556555
0.087434284 0.25251999 0.64200002 4280688399
0.088933334 0.25330669 0.64400005 4280754706
0.090160005 0.25330669 0.64400005 4280821784
0.091528572 0.25370002 0.64500004 4281019935
0.093044758 0.25448665 0.64700001 4281216804
0.094422854 0.25487998 0.648 4281349418
0.096100003 0.25606 0.65100002 4281479981
0.097639054 0.2568467 0.65300006 4281744432
0.098882869 0.2568467 0.65300006 4282072378
0.10074 0.25841999 0.65700001 4282071364
0.10214667 0.25881335 0.65800005 4282072130
0.10340001 0.25881335 0.65800005 4282138687
0.10465334 0.25881335 0.65800005 4282271039
0.10622857 0.25960001 0.66000003 4282600767
0.10748572 0.25960001 0.66000003 4282929216
0.10923715 0.26078004 0.66300005 4283126592
0.11050001 0.26078004 0.66300005 4283323718
0.1115943 0.26038671 0.66200006 4283520587
0.11302572 0.26078004 0.66300005 4283717455
0.11428858 0.26078004 0.66300005 4284110931
0.11555143 0.26078004 0.66300005 4284569942
0.11681429 0.26078004 0.66300005 4284440153
0.11789906 0.26038671 0.66200006 4284375134
0.11916001 0.26038671 0.66200006 4284572259
0.12042096 0.26038671 0.66200006 4284769121
0.12186572 0.26078004 0.66300005 4284571231
0.12294286 0.26038671 0.66200006 4284439901
0.12439144 0.26078004 0.66300005 4284439644
0.12603334 0.26156667 0.66500002 4284441179
0.12691715 0.26078004 0.66300005 4284833883
0.12818 0.26078004 0.66300005 4285227874
0.12944287 0.26078004 0.66300005 4284965738
0.1311 0.26156667 0.66500002 4284704105
0.13196859 0.26078004 0.66300005 4284441703
0.13363333 0.26156667 0.66500002 4284180072
0.13449429 0.26078004 0.66300005 4284442217
0.13575715 0.26078004 0.66300005 4284770410
0.13681334 0.26038671 0.66200006 4284509292
