# .PCD v0.7 - Point Cloud Data file format
VERSION 0.7
FIELDS x y z rgba
SIZE 4 4 4 4
TYPE F F F U
COUNT 1 1 1 1
WIDTH 1092
HEIGHT 1
VIEWPOINT 0 0 0 1 0 0 0
POINTS 1092
DATA ascii
-0.28805336 0.22352001 0.61600006 4283922510
-0.28688002 0.22352001 0.61600006 4284635198
-0.2857067 0.22352001 0.61600006 4283456814
-0.28499526 0.22388287 0.61700004 4282265910
-0.28428 0.22424571 0.61800003 4280693054
-0.28401905 0.22497143 0.62 4279119418
-0.28283811 0.22497143 0.62 4280560695
-0.28120285 0.22460857 0.61900002 4282066746
-0.28047618 0.22497143 0.62 4283192892
-0.27884477 0.22460857 0.61900002 4284303938
-0.27766573 0.22460857 0.61900002 4282728008
-0.2296543 0.24928287 0.68700004 4280360465
-0.22734857 0.24819429 0.68400002 4280294418
-0.22670668 0.24892002 0.68600005 4280162834
-0.22540002 0.24892002 0.68600005 4280097039
-0.22409335 0.24892002 0.68600005 4279965963
-0.22278668 0.24892002 0.68600005 4279899402
-0.22148001 0.24892002 0.68600005 4279636234
-0.22017336 0.24892002 0.68600005 4279373578
-0.21886668 0.24892002 0.68600005 4279701002
-0.21756001 0.24892002 0.68600005 4280095750
-0.21625334 0.24892002 0.68600005 4280950275
-0.21432 0.24819429 0.68400002 4281802758
-0.21301714 0.24819429 0.68400002 4281278986
-0.21171428 0.24819429 0.68400002 4280753678
-0.21010381 0.24783145 0.68300003 4280359442
-0.20849715 0.24746858 0.68200004 4279963920
-0.20719811 0.24746858 0.68200004 4279176206
-0.20589906 0.24746858 0.68200004 4278389769
-0.20460002 0.24746858 0.68200004 4279371013
-0.20330097 0.24746858 0.68200004 4280367640
-0.18053904 0.23005143 0.634 4279243786
-0.17933144 0.23005143 0.634 4280291864
-0.17840478 0.2304143 0.63500005 4280160550
-0.17719525 0.2304143 0.63500005 4280097815
-0.17598572 0.2304143 0.63500005 4279503369
-0.17450094 0.23005143 0.634 4278977296
-0.17329334 0.23005143 0.634 4283532823
-0.17208572 0.23005143 0.634 4288118286
-0.17141715 0.23077714 0.63600004 4284568070
-0.16457048 0.24783145 0.68300003 4279308311
-0.15777142 0.23948571 0.66000003 4279111434
-0.1565143 0.23948571 0.66000003 4278914310
-0.16090286 0.24819429 0.68400002 4278848514
-0.1596 0.24819429 0.68400002 4278782473
-0.15806572 0.24783145 0.68300003 4278782224
-0.1569943 0.24819429 0.68400002 4278781967
-0.15569143 0.24819429 0.68400002 4278847502
-0.15506573 0.24928287 0.68700004 4278978313
-0.15353334 0.24892002 0.68600005 4278912772
-0.15222667 0.24892002 0.68600005 4278912515
-0.15026 0.24783145 0.68300003 4278846722
-0.14808667 0.24638 0.67900002 4278781442
-0.14614478 0.24529146 0.67600006 4279043843
-0.14485715 0.24529146 0.67600006 4279371523
-0.14335714 0.24492858 0.67500001 4279109636
-0.14186096 0.24456571 0.67400002 4278847490
-0.13995144 0.24347714 0.671 4278846977
-0.13826001 0.24275143 0.66900003 4278847233
-0.13637143 0.24166286 0.66600001 4278650881
-0.13510285 0.24166286 0.66600001 4278519809
-0.13323143 0.2405743 0.66300005 4278651138
-0.13176954 0.24021144 0.66200006 4278782210
-0.13031143 0.23984857 0.66100001 4278782466
-0.12827143 0.23839714 0.65700001 4278782216
-0.12663335 0.23767143 0.65500003 4278913295
-0.12500286 0.23694572 0.65300006 4279043848
-0.12356953 0.23658286 0.65200001 4278978306
-0.12214001 0.23622 0.65100002 4278978561
-0.12071429 0.23585714 0.65000004 4278782209
-0.11910857 0.23513143 0.648 4278651138
-0.11769238 0.23476857 0.64700001 4278716932
-0.11628 0.23440571 0.64600003 4278782471
-0.11487143 0.23404287 0.64500004 4278782475
-0.11311429 0.23295429 0.64200002 4278782216
-0.11154287 0.23222858 0.64000005 4278913285
-0.11015144 0.23186572 0.63900006 4279044611
-0.10876381 0.23150286 0.63800001 4278913794
-0.10754857 0.23150286 0.63800001 4278848258
-0.106 0.23077714 0.63600004 4278782722
-0.10462382 0.2304143 0.63500005 4278782468
-0.10325143 0.23005143 0.634 4278585606
-0.10204381 0.23005143 0.634 4278390278
-0.1005181 0.22932571 0.63200003 4278981895
-0.099314287 0.22932571 0.63200003 4279570187
-0.097955242 0.22896287 0.63100004 4279962128
-0.096446671 0.22823714 0.62900001 4280421387
-0.095097147 0.22787429 0.62800002 4280487429
-0.093900949 0.22787429 0.62800002 4280621063
-0.092557147 0.22751144 0.62700003 4281278985
-0.091217145 0.22714858 0.62600005 4281996312
-0.090024769 0.22714858 0.62600005 4281080614
-0.088832386 0.22714858 0.62600005 4280161300
-0.087499999 0.2267857 0.625 4279897602
-0.086447619 0.22714858 0.62600005 4279701765
-0.085391432 0.22751144 0.62700003 4279506184
-0.084197149 0.22751144 0.62700003 4279376132
-0.083267614 0.22823714 0.62900001 4279966977
-0.08233048 0.22896287 0.63100004 4280621059
-0.081385717 0.22968857 0.63300002 4279505925
-0.080433339 0.2304143 0.63500005 4278455562
-0.079598099 0.23150286 0.63800001 4279895823
-0.078505717 0.23186572 0.63900006 4281412112
-0.077409528 0.23222858 0.64000005 4282337296
-0.076309532 0.23259144 0.64100003 4283255065
-0.07555715 0.23404287 0.64500004 4283058722
-0.074328579 0.23404287 0.64500004 4282862114
-0.07344 0.23513143 0.648 4282665507
-0.072428577 0.23585714 0.65000004 4282467099
-0.071190484 0.23585714 0.65000004 4282465555
-0.069348574 0.23803429 0.65600002 4282264330
-0.068099052 0.23803429 0.65600002 4282068499
-0.067562856 0.2405743 0.66300005 4282003996
-0.066300005 0.2405743 0.66300005 4282003228
-0.065233335 0.2413 0.66500002 4281412892
-0.063774288 0.2405743 0.66300005 4280823326
-0.06241715 0.24021144 0.66200006 4280758305
-0.061063815 0.23984857 0.66100001 4280756765
-0.05998572 0.2405743 0.66300005 4281145882
-0.058722861 0.2405743 0.66300005 4281540882
-0.057633337 0.2413 0.66500002 4281477386
-0.056366667 0.2413 0.66500002 4281411344
-0.055100001 0.2413 0.66500002 4281214486
-0.053833336 0.2413 0.66500002 4281082899
-0.05256667 0.2413 0.66500002 4281082641
-0.05137714 0.24166286 0.66600001 4281147917
-0.050108574 0.24166286 0.66600001 4281082122
-0.048840001 0.24166286 0.66600001 4281016334
-0.047499999 0.2413 0.66500002 4280950547
-0.046233334 0.2413 0.66500002 4280951312
-0.04122857 0.24166286 0.66600001 4280884999
-0.039659999 0.23984857 0.66100001 4280623109
-0.038400952 0.23984857 0.66100001 4280426499
-0.037198097 0.24021144 0.66200006 4280099073
-0.035991434 0.2405743 0.66300005 4279837194
-0.034833334 0.2413 0.66500002 4279968787
-0.033465717 0.2405743 0.66300005 4280163344
-0.032299999 0.2413 0.66500002 4280162830
-0.031033335 0.2413 0.66500002 4280162833
-0.029766668 0.2413 0.66500002 4280032021
-0.028542858 0.24166286 0.66600001 4279965966
-0.027315238 0.24202572 0.66700006 4279769095
-0.026044764 0.24202572 0.66700006 4279569925
-0.024774287 0.24202572 0.66700006 4279175683
-0.023680001 0.24384001 0.67200005 4278848002
-0.022466667 0.24456571 0.67400002 4278979074
-0.021182857 0.24456571 0.67400002 4279109889
-0.019899048 0.24456571 0.67400002 4279044353
-0.012060001 0.21880287 0.60300004 4278848259
-0.010929525 0.21916571 0.60400003 4278651652
-0.0097952383 0.21952857 0.60500002 4278520583
-0.0086428579 0.21952857 0.60500002 4278914058
-0.0074904761 0.21952857 0.60500002 4279307269
-0.0063276193 0.21916571 0.60400003 4279176193
-0.0051685721 0.21880287 0.60300004 4279045377
-0.0040200003 0.21880287 0.60300004 4278980097
-0.0028714288 0.21880287 0.60300004 4278980097
-0.0017257143 0.21916571 0.60400003 4279176961
-0.00057523814 0.21916571 0.60400003 4279373057
0.00057523814 0.21916571 0.60400003 4279176193
0.0017257143 0.21916571 0.60400003 4279045126
0.0028761907 0.21916571 0.60400003 4278783243
0.0040333336 0.21952857 0.60500002 4278521352
0.005177143 0.21916571 0.60400003 4278718213
0.0063276193 0.21916571 0.60400003 4278979844
0.0074780956 0.21916571 0.60400003 4278979587
0.0086142868 0.21880287 0.60300004 4278979843
0.0097628571 0.21880287 0.60300004 4278980866
0.010929525 0.21916571 0.60400003 4278980866
0.012080001 0.21916571 0.60400003 4278716674
0.013252381 0.21952857 0.60500002 4278521091
0.014404762 0.21952857 0.60500002 4278783492
0.015557144 0.21952857 0.60500002 4279045123
0.016737143 0.21989143 0.60600001 4279044866
0.017891428 0.21989143 0.60600001 4279111169
0.019077145 0.2202543 0.60700005 4278979073
0.020200001 0.21989143 0.60600001 4278913282
0.021354286 0.21989143 0.60600001 4279109891
0.022545716 0.2202543 0.60700005 4279307524
0.023701908 0.2202543 0.60700005 4279243014
0.024899049 0.22061715 0.60800004 4279177220
0.026014287 0.2202543 0.60700005 4279177986
0.027170479 0.2202543 0.60700005 4279242754
0.028373335 0.22061715 0.60800004 4279309570
0.029531429 0.22061715 0.60800004 4279440645
0.030689526 0.22061715 0.60800004 4279637256
0.031900004 0.22098 0.60900003 4279832837
0.033059999 0.22098 0.60900003 4279636226
0.034219999 0.22098 0.60900003 4279439619
0.035380002 0.22098 0.60900003 4279897605
0.036660001 0.2217057 0.611 4280357130
0.037947621 0.22243144 0.61300004 4280030223
0.039051428 0.22206858 0.61200005 4279767562
0.040348571 0.22279429 0.61400002 4280291846
0.041585714 0.22315714 0.61500001 4280882181
0.042757142 0.22315714 0.61500001 4280358404
0.043928571 0.22315714 0.61500001 4279899401
0.0451 0.22315714 0.61500001 4279702542
0.046271428 0.22315714 0.61500001 4279570954
0.047442857 0.22315714 0.61500001 4279570694
0.04869334 0.22352001 0.61600006 4279570696
0.049866669 0.22352001 0.61600006 4279505418
0.051040005 0.22352001 0.61600006 4279441684
0.05238286 0.22424571 0.61800003 4279703326
0.053560004 0.22424571 0.61800003 4280030736
0.054825716 0.22460857 0.61900002 4280096257
0.056004763 0.22460857 0.61900002 4280162563
0.057183813 0.22460857 0.61900002 4280163334
0.058457144 0.22497143 0.62 4280228619
0.059638094 0.22497143 0.62 4280359953
0.061015241 0.22569714 0.62200004 4280556301
0.061999999 0.22497143 0.62 4280294153
0.063384764 0.22569714 0.62200004 4280031751
0.064777143 0.22642286 0.62400001 4280097029
0.065965712 0.22642286 0.62400001 4280228105
0.067261904 0.2267857 0.625 4280490252
0.068452381 0.2267857 0.625 4280818195
0.069642857 0.2267857 0.625 4280425497
0.071173333 0.22787429 0.62800002 4280032273
0.072369523 0.22787429 0.62800002 4280032265
0.07368286 0.22823714 0.62900001 4280031245
0.075119056 0.22896287 0.63100004 4279899153
0.076562852 0.22968857 0.63300002 4279834638
0.077891432 0.23005143 0.634 4279703819
0.079099044 0.23005143 0.634 4279638296
0.080560006 0.23077714 0.63600004 4279900453
0.082028575 0.23150286 0.63800001 4280228124
0.083374292 0.23186572 0.63900006 4280296211
0.084591433 0.23186572 0.63900006 4280427537
0.085942864 0.23222858 0.64000005 4280428046
0.087298095 0.23259144 0.64100003 4280426765
0.088657148 0.23295429 0.64200002 4280294413
0.090160005 0.23368001 0.64400005 4280227345
0.091386676 0.23368001 0.64400005 4280357141
0.092757143 0.23404287 0.64500004 4280488460
0.094277143 0.23476857 0.64700001 4280225284
0.095657147 0.23513143 0.648 4280031241
0.097190477 0.23585714 0.65000004 4280163343
0.098580003 0.23622 0.65100002 4280359705
0.099973336 0.23658286 0.65200001 4280621858
0.10137048 0.23694572 0.65300006 4280949530
0.10308572 0.23803429 0.65600002 4280887058
0.10497143 0.23948571 0.66000003 4280821012
0.10638952 0.23984857 0.66100001 4280754965
0.10764857 0.23984857 0.66100001 4280688399
0.10907239 0.24021144 0.66200006 4280687626
0.11050001 0.2405743 0.66300005 4280753165
0.1121 0.2413 0.66500002 4280949776
0.11370763 0.24202572 0.66700006 4281146911
0.11584001 0.24384001 0.67200005 4281737519
0.11746857 0.24456571 0.67400002 4282332982
0.11892857 0.24492858 0.67500001 4282863421
0.12021428 0.24492858 0.67500001 4283389256
0.13077047 0.25291142 0.69700003 4284375125
0.1336143 0.25581428 0.70500004 4284375384
0.13495715 0.25581428 0.70500004 4284375643
0.13668667 0.25654 0.70700002 4284440916
0.13803333 0.25654 0.70700002 4284244301
0.13937999 0.25654 0.70700002 4284112725
0.14072667 0.25654 0.70700002 4284440157
0.14207333 0.25654 0.70700002 4284834918
0.14281143 0.25545144 0.70400006 4284905840
0.14415239 0.25545144 0.70400006 4285033296
0.14549334 0.25545144 0.70400006 4283630129
0.14620858 0.25436288 0.70100003 4282273609
0.14754382 0.25436288 0.70100003 4283068257
0.14866666 0.25400001 0.70000005 4283847508
0.15000001 0.25400001 0.70000005 4283517256
0.38130572 0.45828858 1.263 4278387713
0.38523048 0.46010286 1.268 4278387713
0.38764572 0.46010286 1.268 4278387714
0.39006093 0.46010286 1.268 4278453506
0.39092857 0.45828858 1.263 4278584835
0.39208859 0.45683715 1.2590001 4278780938
0.3944867 0.45683715 1.2590001 4278649874
0.3968848 0.45683715 1.2590001 4278519050
0.39928287 0.45683715 1.2590001 4278520066
0.40008575 0.45502287 1.2540001 4278519810
0.40086955 0.4532086 1.2490001 4278455810
0.40195712 0.45175713 1.245 4278453761
0.40432858 0.45175713 1.245 4278389249
0.40506667 0.44994286 1.24 4278388738
0.40611428 0.44849142 1.2360001 4278388740
0.4084686 0.44849142 1.2360001 4278453763
0.40949339 0.44704002 1.2320001 4278388481
0.41016859 0.44522575 1.2270001 4278388227
0.41116098 0.44377428 1.223 4278322437
0.4121381 0.44232288 1.2190001 4278322435
0.41446003 0.44232288 1.2190001 4278258177
0.41507241 0.4405086 1.2140001 4278257921
0.41600955 0.43905714 1.21 4278257921
0.41831428 0.43905714 1.21 4278257411
0.42061907 0.43905714 1.21 4278519302
0.4229238 0.43905714 1.21 4278780420
0.42382288 0.43760574 1.2060001 4278584066
0.42612001 0.43760574 1.2060001 4278387206
0.42841718 0.43760574 1.2060001 4278389258
0.42928571 0.43615428 1.202 4278453254
0.43157527 0.43615428 1.202 4278387715
0.43206003 0.43434 1.197 4278387462
0.4328886 0.4328886 1.1930001 4278387466
0.43516099 0.4328886 1.1930001 4278387461
0.43596667 0.43143713 1.189 4278387713
0.43823144 0.43143713 1.189 4278453249
0.44049618 0.43143713 1.189 4278388481
0.44276097 0.43143713 1.189 4278322433
0.44502571 0.43143713 1.189 4278256641
0.44578573 0.42998573 1.1850001 4278256385
0.4480429 0.42998573 1.1850001 4278256385
0.45030004 0.42998573 1.1850001 4278321921
0.45102957 0.4285343 1.1810001 4278321921
0.45327911 0.4285343 1.1810001 4278322433
0.45398575 0.42708287 1.177 4278323457
0.45622763 0.42708287 1.177 4278388993
0.45846951 0.42708287 1.177 4278323457
0.46071142 0.42708287 1.177 4278257409
0.46138003 0.42563143 1.1730001 4278452993
0.46361431 0.42563143 1.1730001 4278715138
0.46584862 0.42563143 1.1730001 4278520067
0.46967906 0.42708287 1.177 4278387970
0.47031718 0.42563143 1.1730001 4278322177
0.47255147 0.42563143 1.1730001 4278256388
0.47640476 0.42708287 1.177 4278321927
0.47702003 0.42563143 1.1730001 4278387460
0.48088858 0.42708287 1.177 4278387457
0.48148862 0.42563143 1.1730001 4278387457
0.48372287 0.42563143 1.1730001 4278321921
0.48595718 0.42563143 1.1730001 4278321922
0.37884 0.32004002 0.88200003 4279374349
0.37965715 0.3193143 0.88000005 4279570442
0.38133335 0.3193143 0.88000005 4279767055
0.38300955 0.3193143 0.88000005 4279505173
0.38468572 0.3193143 0.88000005 4279242770
0.38724002 0.32004002 0.88200003 4279114256
0.38892001 0.32004002 0.88200003 4278983189
0.39148575 0.32076573 0.88400006 4278983194
0.39228001 0.32004002 0.88200003 4278980623
0.3930667 0.3193143 0.88000005 4279243269
0.39384574 0.31858858 0.87800002 4279505160
0.39551809 0.31858858 0.87800002 4279177483
0.39719048 0.31858858 0.87800002 4278914566
0.39750004 0.31750003 0.87500006 4279375106
0.39642954 0.31532288 0.86900002 4279831809
0.39808476 0.31532288 0.86900002 4279242241
0.39974001 0.31532288 0.86900002 4278652417
0.40139523 0.31532288 0.86900002 4278652417
0.40490571 0.31677428 0.87300003 4278651910
0.40656856 0.31677428 0.87300003 4278520586
0.40823144 0.31677428 0.87300003 4278454790
0.40989429 0.31677428 0.87300003 4278388994
0.41155714 0.31677428 0.87300003 4278388737
0.41322002 0.31677428 0.87300003 4278388737
0.41488287 0.31677428 0.87300003 4278389254
0.41654572 0.31677428 0.87300003 4278455818
0.4182086 0.31677428 0.87300003 4278586886
0.41987145 0.31677428 0.87300003 4278849025
0.4215343 0.31677428 0.87300003 4279176449
0.42125809 0.31532288 0.86900002 4278781697
0.42486003 0.31677428 0.87300003 4278389249
0.40991142 0.30443716 0.83900005 4278455553
0.41150954 0.30443716 0.83900005 4278585858
0.41310763 0.30443716 0.83900005 4278585603
0.41371715 0.30371141 0.83700001 4278650371
0.4172962 0.30516288 0.84100002 4278584836
0.41889811 0.30516288 0.84100002 4278519299
0.42050001 0.30516288 0.84100002 4278388226
0.42109811 0.30443716 0.83900005 4278256647
0.42370382 0.30516288 0.84100002 4278256651
0.42530572 0.30516288 0.84100002 4278256646
0.42690763 0.30516288 0.84100002 4278256641
0.4060905 0.28919715 0.79700005 4278256641
0.40760857 0.28919715 0.79700005 4278256642
0.40810001 0.28847143 0.79500002 4278322177
0.40961429 0.28847143 0.79500002 4278256641
0.41112855 0.28847143 0.79500002 4278256641
0.41264284 0.28847143 0.79500002 4278256385
0.41311526 0.28774574 0.79300004 4278256641
0.41462573 0.28774574 0.79300004 4278257153
0.41508666 0.28702 0.79100001 4278322437
0.41554001 0.28629428 0.78900003 4278322186
0.41651431 0.28593144 0.78800005 4278321670
0.41801524 0.28593144 0.78800005 4278256129
0.41845143 0.28520572 0.78600001 4278256129
0.41994858 0.28520572 0.78600001 4278321665
0.42144573 0.28520572 0.78600001 4278452993
0.42186669 0.28448001 0.78400004 4278387457
0.42336002 0.28448001 0.78400004 4278321921
-0.34337527 0.22177525 0.60800004 4280888884
-0.34221718 0.22177525 0.60800004 4281019954
-0.34049812 0.2214105 0.60700005 4281151026
-0.33934191 0.2214105 0.60700005 4281217075
-0.33818573 0.2214105 0.60700005 4281283378
-0.3364743 0.22104572 0.60600001 4281349169
-0.33532 0.22104572 0.60600001 4281414965
-0.33416569 0.22104572 0.60600001 4281480505
-0.33301145 0.22104572 0.60600001 4281480501
-0.33240479 0.2214105 0.60700005 4281218354
-0.33234 0.22214 0.60900003 4281019692
-0.33118001 0.22214 0.60900003 4280493862
-0.3311038 0.22286952 0.611 4280033815
-0.33048001 0.2232343 0.61200005 4280558856
-0.32931432 0.2232343 0.61200005 4281083681
-0.3281486 0.2232343 0.61200005 4281215547
-0.32698289 0.2232343 0.61200005 4281414205
-0.31402382 0.22068097 0.60500002 4282073407
-0.3123543 0.2203162 0.60400003 4282862143
-0.31223428 0.22104572 0.60600001 4283650104
-0.31056666 0.22068097 0.60500002 4282139697
-0.30992571 0.22104572 0.60600001 4280692249
-0.30826193 0.22068097 0.60500002 4280423169
-0.30761716 0.22104572 0.60600001 4280227095
-0.30798003 0.22214 0.60900003 4280756525
-0.30682001 0.22214 0.60900003 4281347879
-0.30716574 0.2232343 0.61200005 4281876257
-0.30600002 0.2232343 0.61200005 4282470453
-0.30533239 0.22359905 0.61300004 4282335050
-0.30416477 0.22359905 0.61300004 4282199621
-0.30349144 0.22396381 0.61400002 4282073665
-0.30182955 0.22359905 0.61300004 4281942335
-0.30115241 0.22396381 0.61400002 4282268478
-0.29998288 0.22396381 0.61400002 4282660677
-0.29832667 0.22359905 0.61300004 4283185996
-0.29715908 0.22359905 0.61300004 4283645766
-0.29550859 0.2232343 0.61200005 4283715649
-0.29434288 0.2232343 0.61200005 4283713863
-0.29317716 0.2232343 0.61200005 4281933902
-0.29201144 0.2232343 0.61200005 4280226624
-0.29037049 0.22286952 0.611 4280291378
-0.2911 0.22432856 0.61500001 4280355641
-0.28992859 0.22432856 0.61500001 4281672256
-0.28875715 0.22432856 0.61500001 4282993490
-0.28758571 0.22432856 0.61500001 4283256421
-0.2864143 0.22432856 0.61500001 4283519565
-0.28524286 0.22432856 0.61500001 4282661941
-0.28453338 0.22469336 0.61600006 4281739066
-0.28336 0.22469336 0.61600006 4280821568
-0.28356096 0.22578762 0.61900002 4279904062
-0.28238192 0.22578762 0.61900002 4280822077
-0.28074858 0.22542287 0.61800003 4281674804
-0.27957144 0.22542287 0.61800003 4282730796
-0.27884477 0.22578762 0.61900002 4283722555
-0.27766573 0.22578762 0.61900002 4282795595
-0.2296543 0.25059143 0.68700004 4280753945
-0.22734857 0.24949716 0.68400002 4280753689
-0.22670668 0.25022668 0.68600005 4280622618
-0.22540002 0.25022668 0.68600005 4280491796
-0.22409335 0.25022668 0.68600005 4280294414
-0.2218124 0.24913239 0.68300003 4280097292
-0.22051142 0.24913239 0.68300003 4279834378
-0.21953143 0.24949716 0.68400002 4279506185
-0.21822856 0.24949716 0.68400002 4279833865
-0.21660858 0.24913239 0.68300003 4280096005
-0.21562286 0.24949716 0.68400002 4281410050
-0.21432 0.24949716 0.68400002 4282660866
-0.21270572 0.24913239 0.68300003 4281740034
-0.21171428 0.24949716 0.68400002 4280883714
-0.20887333 0.24767333 0.67900002 4280359170
-0.2072743 0.24730858 0.67800003 4279833102
-0.20659047 0.2480381 0.68000001 4279504667
-0.20529523 0.2480381 0.68000001 4279242002
-0.204 0.2480381 0.68000001 4279372297
-0.18025428 0.2308943 0.63300002 4279967764
-0.17904858 0.2308943 0.63300002 4280361494
-0.17784286 0.2308943 0.63300002 4280229913
-0.17663714 0.2308943 0.63300002 4280164117
-0.17543143 0.2308943 0.63300002 4279765010
-0.17422572 0.2308943 0.63300002 4279370522
-0.17302001 0.2308943 0.63300002 4283928610
-0.17181428 0.2308943 0.63300002 4288449813
-0.16432953 0.24876764 0.68200004 4279505182
-0.16326953 0.24913239 0.68300003 4279243021
-0.16196857 0.24913239 0.68300003 4278980872
-0.16066763 0.24913239 0.68300003 4278980099
-0.15936667 0.24913239 0.68300003 4278913292
-0.15806572 0.24913239 0.68300003 4278782230
-0.15676478 0.24913239 0.68300003 4278585362
-0.15569143 0.24949716 0.68400002 4278781966
-0.15484001 0.25022668 0.68600005 4279044105
-0.15263809 0.24876764 0.68200004 4279109380
-0.15133905 0.24876764 0.68200004 4279174914
-0.15004 0.24876764 0.68200004 4278847489
-0.14830476 0.2480381 0.68000001 4278585602
-0.14614478 0.24657907 0.67600006 4278847492
-0.14485715 0.24657907 0.67600006 4279174916
-0.14335714 0.24621427 0.67500001 4278978308
-0.14144 0.24512 0.67200005 4278847490
-0.13974287 0.24439049 0.67000002 4278913281
-0.13784668 0.24329621 0.66700006 4278913537
-0.13637143 0.24293143 0.66600001 4278782209
-0.13510285 0.24293143 0.66600001 4278651138
-0.13363333 0.24256667 0.66500002 4278650883
-0.13196859 0.24183716 0.66300005 4278716163
-0.13031143 0.24110763 0.66100001 4278781956
-0.12827143 0.23964857 0.65700001 4278847500
-0.12663335 0.23891905 0.65500003 4279044117
-0.12500286 0.23818953 0.65300006 4279174924
-0.12356953 0.23782477 0.65200001 4278978307
-0.12214001 0.23746 0.65100002 4278781698
-0.12071429 0.23709525 0.65000004 4278716161
-0.11910857 0.23636572 0.648 4278650626
-0.11769238 0.23600096 0.64700001 4278716932
-0.11628 0.2356362 0.64600003 4278782216
-0.11487143 0.23527144 0.64500004 4278716428
-0.11346667 0.23490669 0.64400005 4278650377
-0.11154287 0.23344763 0.64000005 4278781190
-0.11032382 0.23344763 0.64000005 4278912005
-0.1089343 0.23308288 0.63900006 4278913540
-0.10754857 0.2327181 0.63800001 4278912771
-0.106 0.23198858 0.63600004 4278912770
-0.10462382 0.23162383 0.63500005 4278913027
-0.10325143 0.23125905 0.634 4278716676
-0.10188286 0.2308943 0.63300002 4278586374
-0.1005181 0.23052953 0.63200003 4279242760
-0.099314287 0.23052953 0.63200003 4279899140
-0.097955242 0.23016478 0.63100004 4280617985
-0.096446671 0.22943524 0.62900001 4281336837
-0.095097147 0.22907047 0.62800002 4280947722
-0.093900949 0.22907047 0.62800002 4280622854
-0.092557147 0.22870572 0.62700003 4280883971
-0.091217145 0.22834095 0.62600005 4281079560
-0.090024769 0.22834095 0.62600005 4280291598
-0.088832386 0.22834095 0.62600005 4279569415
-0.087640002 0.22834095 0.62600005 4279635201
-0.086447619 0.22834095 0.62600005 4279766530
-0.085255243 0.22834095 0.62600005 4279571972
-0.084197149 0.22870572 0.62700003 4279377410
-0.08313524 0.22907047 0.62800002 4279769089
-0.08233048 0.23016478 0.63100004 4280160772
-0.081771433 0.23198858 0.63600004 4279306759
-0.080560006 0.23198858 0.63600004 4278453009
-0.079598099 0.2327181 0.63800001 4280492828
-0.078505717 0.23308288 0.63900006 4282532112
-0.077409528 0.23344763 0.64000005 4282994180
-0.076190479 0.23344763 0.64000005 4283519508
-0.074971437 0.23344763 0.64000005 4283388196
-0.074674278 0.23636572 0.648 4283257128
-0.07344 0.23636572 0.648 4283191085
-0.07254 0.23746 0.65100002 4283125028
-0.071519054 0.23818953 0.65300006 4283125020
-0.070490479 0.23891905 0.65500003 4283125013
-0.069348574 0.23928382 0.65600002 4282992910
-0.068202853 0.23964857 0.65700001 4282860829
-0.06705334 0.24001335 0.65800005 4282793772
-0.066 0.24074286 0.66000003 4282792492
-0.064742863 0.24074286 0.66000003 4282661676
-0.063485719 0.24074286 0.66000003 4282531118
-0.062322859 0.24110763 0.66100001 4282463793
-0.060971431 0.24074286 0.66000003 4282396462
-0.059804764 0.24110763 0.66100001 4282464555
-0.058545712 0.24110763 0.66100001 4282532634
-0.057373337 0.24147239 0.66200006 4282399498
-0.056112386 0.24147239 0.66200006 4282266645
-0.054851435 0.24147239 0.66200006 4282069280
-0.053671431 0.24183716 0.66300005 4281937434
-0.052408572 0.24183716 0.66300005 4281937941
-0.051145718 0.24183716 0.66300005 4281938705
-0.049882859 0.24183716 0.66300005 4281806350
-0.048766669 0.24256667 0.66500002 4281674259
-0.047499999 0.24256667 0.66500002 4281607705
-0.046233334 0.24256667 0.66500002 4281541143
-0.040980954 0.24147239 0.66200006 4281278988
-0.039659999 0.24110763 0.66100001 4281016330
-0.038400952 0.24110763 0.66100001 4280753670
-0.037141904 0.24110763 0.66100001 4280492290
-0.035937145 0.24147239 0.66200006 4280231695
-0.034728575 0.24183716 0.66300005 4280231197
-0.033415239 0.24147239 0.66200006 4280295192
-0.032202858 0.24183716 0.66300005 4280295187
-0.030893337 0.24147239 0.66200006 4280295193
-0.029677145 0.24183716 0.66300005 4280294944
-0.0285 0.24256667 0.66500002 4280294933
-0.027274286 0.24293143 0.66600001 4279965706
-0.025888573 0.24183716 0.66300005 4279635462
-0.024625717 0.24183716 0.66300005 4279110658
-0.023680001 0.24512 0.67200005 4278651393
-0.022466667 0.24584952 0.67400002 4278847745
-0.021182857 0.24584952 0.67400002 4279109889
-0.019899048 0.24584952 0.67400002 4279044353
-0.012060001 0.21995145 0.60300004 4278914306
-0.010965714 0.22104572 0.60600001 4278782979
-0.0098114284 0.22104572 0.60600001 4278651912
-0.0086571425 0.22104572 0.60600001 4278914062
-0.0075028571 0.22104572 0.60600001 4279241991
-0.0063380953 0.22068097 0.60500002 4279110913
-0.005177143 0.2203162 0.60400003 4279045633
-0.0040266667 0.2203162 0.60400003 4278980097
-0.0028761907 0.2203162 0.60400003 4278914049
-0.0017285715 0.22068097 0.60500002 4279045889
-0.00057619048 0.22068097 0.60500002 4279176705
0.00057619048 0.22068097 0.60500002 4279110913
0.0017285715 0.22068097 0.60500002 4279045130
0.0028857142 0.22104572 0.60600001 4278848787
0.00404 0.22104572 0.60600001 4278716941
0.0051857145 0.22068097 0.60500002 4278914056
0.0063380953 0.22068097 0.60500002 4279176452
0.0074780956 0.2203162 0.60400003 4279176193
0.0086285714 0.2203162 0.60400003 4279176193
0.0097790482 0.2203162 0.60400003 4279243009
0.01094762 0.22068097 0.60500002 4279374593
0.0121 0.22068097 0.60500002 4279176961
0.013252381 0.22068097 0.60500002 4279045122
0.014428572 0.22104572 0.60600001 4279373316
0.015582857 0.22104572 0.60600001 4279700738
0.016737143 0.22104572 0.60600001 4279504129
0.017920954 0.2214105 0.60700005 4279307777
0.019077145 0.2214105 0.60700005 4279241986
0.020200001 0.22104572 0.60600001 4279241730
0.021389525 0.2214105 0.60700005 4279438595
0.022545716 0.2214105 0.60700005 4279701254
0.023701908 0.2214105 0.60700005 4279439114
0.024899049 0.22177525 0.60800004 4279242759
0.026014287 0.2214105 0.60700005 4279177220
0.027170479 0.2214105 0.60700005 4279111939
0.028326668 0.2214105 0.60700005 4279243523
0.02948286 0.2214105 0.60700005 4279375112
0.030689526 0.22177525 0.60800004 4279505678
0.031847622 0.22177525 0.60800004 4279636488
0.033059999 0.22214 0.60900003 4279439874
0.034219999 0.22214 0.60900003 4279243268
0.03549619 0.22286952 0.611 4279569926
0.036660001 0.22286952 0.611 4279899663
0.037823807 0.22286952 0.611 4279636505
0.039051428 0.2232343 0.61200005 4279374352
0.040217146 0.2232343 0.61200005 4279767303
0.041518096 0.22396381 0.61400002 4280226053
0.042687621 0.22396381 0.61400002 4279964420
0.043928571 0.22432856 0.61500001 4279637250
0.0451 0.22432856 0.61500001 4279702529
0.046271428 0.22432856 0.61500001 4279701762
0.047442857 0.22432856 0.61500001 4279963908
0.04869334 0.22469336 0.61600006 4280226308
0.049866669 0.22469336 0.61600006 4279964420
0.051205717 0.22542287 0.61800003 4279703559
0.05238286 0.22542287 0.61800003 4279834635
0.053560004 0.22542287 0.61800003 4279965958
0.054825716 0.22578762 0.61900002 4279965442
0.056004763 0.22578762 0.61900002 4280031749
0.057183813 0.22578762 0.61900002 4279900680
0.058457144 0.22615239 0.62 4279769616
0.059638094 0.22615239 0.62 4280228377
0.061015241 0.22688192 0.62200004 4280686099
0.062200006 0.22688192 0.62200004 4280096014
0.063588567 0.22761144 0.62400001 4279506188
0.064777143 0.22761144 0.62400001 4279834634
0.065965712 0.22761144 0.62400001 4280162827
0.067261904 0.22797619 0.625 4280358668
0.068561912 0.22834095 0.62600005 4280554767
0.069754288 0.22834095 0.62600005 4280292883
0.071060002 0.22870572 0.62700003 4280030987
0.072254293 0.22870572 0.62700003 4280161540
0.07391715 0.23016478 0.63100004 4280357897
0.075238094 0.23052953 0.63200003 4280227086
0.076562852 0.2308943 0.63300002 4280096525
0.077891432 0.23125905 0.634 4280227596
0.079223812 0.23162383 0.63500005 4280424476
0.080560006 0.23198858 0.63600004 4280293420
0.08215715 0.23308288 0.63900006 4280163614
0.083374292 0.23308288 0.63900006 4280163089
0.084723815 0.23344763 0.64000005 4280097041
0.085942864 0.23344763 0.64000005 4279900433
0.087298095 0.23381238 0.64100003 4279703821
0.088657148 0.23417714 0.64200002 4280030474
0.089879997 0.23417714 0.64200002 4280357133
0.091386676 0.23490669 0.64400005 4280685072
0.092757143 0.23527144 0.64500004 4280947467
0.094277143 0.23600096 0.64700001 4280424199
0.095657147 0.23636572 0.648 4279966478
0.097190477 0.23709525 0.65000004 4280162837
0.098580003 0.23746 0.65100002 4280358686
0.099820003 0.23746 0.65100002 4280883240
0.10137048 0.23818953 0.65300006 4281407771
0.10292857 0.23891905 0.65500003 4281015310
0.10513048 0.24110763 0.66100001 4280623119
0.10638952 0.24110763 0.66100001 4280295184
0.10781144 0.24147239 0.66200006 4279967245
0.10907239 0.24147239 0.66200006 4280229642
0.11050001 0.24183716 0.66300005 4280557583
0.1121 0.24256667 0.66500002 4280883989
0.11421905 0.24439049 0.67000002 4281275939
0.11618476 0.24584952 0.67400002 4281939250
0.11764286 0.24621427 0.67500001 4282533947
0.11910477 0.24657907 0.67600006 4282995013
0.12039239 0.24657907 0.67600006 4283454796
0.12168001 0.24657907 0.67600006 4283783252
0.12774763 0.25350955 0.69500005 4284177500
0.12907143 0.25350955 0.69500005 4284309082
0.13077047 0.25423905 0.69700003 4284308824
0.13209809 0.25423905 0.69700003 4284374358
0.13419142 0.25569808 0.70100003 4284374613
0.13610668 0.2567924 0.70400006 4284440403
0.13764286 0.25715715 0.70500004 4284440657
0.13937999 0.25788668 0.70700002 4284440663
0.14032859 0.25715715 0.70500004 4284571486
0.14167143 0.25715715 0.70500004 4284769388
0.14260857 0.25642762 0.70300001 4284969082
0.14394762 0.25642762 0.70300001 4285232964
0.14487334 0.25569808 0.70100003 4283981839
0.14620858 0.25569808 0.70100003 4282730814
0.14733334 0.25533333 0.70000005 4283260014
0.14866666 0.25533333 0.70000005 4283784029
0.15000001 0.25533333 0.70000005 4283189836
0.15133335 0.25533333 0.70000005 4282600265
0.38130572 0.46069428 1.263 4278387457
0.38371143 0.46069428 1.263 4278452993
0.38611713 0.46069428 1.263 4278387714
0.38852286 0.46069428 1.263 4278388483
0.38969049 0.45923525 1.2590001 4278519044
0.39208859 0.45923525 1.2590001 4278649618
0.39292002 0.45741144 1.2540001 4278518561
0.39530861 0.45741144 1.2540001 4278453009
0.39611146 0.45558766 1.2490001 4278453762
0.39849052 0.45558766 1.2490001 4278454531
0.39958572 0.45412856 1.245 4278519812
0.40034288 0.45230478 1.24 4278585090
0.40270475 0.45230478 1.24 4278454273
0.40376002 0.45084575 1.2360001 4278323460
0.40480003 0.44938672 1.2320001 4278388488
0.40714669 0.44938672 1.2320001 4278519301
0.40783146 0.4475629 1.2270001 4278388482
0.41016859 0.4475629 1.2270001 4278322949
0.41116098 0.44610384 1.223 4278322185
0.4121381 0.44464481 1.2190001 4278387717
0.41446003 0.44464481 1.2190001 4278322945
0.41507241 0.442821 1.2140001 4278322945
0.41600955 0.44136193 1.21 4278257409
0.41831428 0.44136193 1.21 4278257413
0.41922858 0.4399029 1.2060001 4278387721
0.42152572 0.4399029 1.2060001 4278583557
0.42382288 0.4399029 1.2060001 4278452738
0.42612001 0.4399029 1.2060001 4278321930
0.4269962 0.43844381 1.202 4278321938
0.42928571 0.43844381 1.202 4278322187
0.43157527 0.43844381 1.202 4278321924
0.43206003 0.43662003 1.197 4278321924
0.4328886 0.43516099 1.1930001 4278321669
0.43516099 0.43516099 1.1930001 4278387203
0.43596667 0.4337019 1.189 4278387201
0.43823144 0.4337019 1.189 4278452737
0.44049618 0.4337019 1.189 4278387201
0.44276097 0.4337019 1.189 4278387457
0.44352859 0.43224287 1.1850001 4278321665
0.44428101 0.43078384 1.1810001 4278256129
0.44653052 0.43078384 1.1810001 4278256129
0.44878006 0.43078384 1.1810001 4278321665
0.45102957 0.43078384 1.1810001 4278321921
0.45174384 0.42932478 1.177 4278322177
0.45398575 0.42932478 1.177 4278322433
0.45622763 0.42932478 1.177 4278322689
0.45846951 0.42932478 1.177 4278256898
0.45914572 0.42786574 1.1730001 4278256897
0.46138003 0.42786574 1.1730001 4278387457
0.46361431 0.42786574 1.1730001 4278518531
0.46584862 0.42786574 1.1730001 4278387717
0.46967906 0.42932478 1.177 4278322435
0.47031718 0.42786574 1.1730001 4278256641
0.47255147 0.42786574 1.1730001 4278257153
0.47478577 0.42786574 1.1730001 4278322177
0.47702003 0.42786574 1.1730001 4278387713
0.48088858 0.42932478 1.177 4278387713
0.48313048 0.42932478 1.177 4278387969
0.48372287 0.42786574 1.1730001 4278453761
0.37630478 0.32099047 0.88000005 4279375122
0.37884 0.32172 0.88200003 4279374607
0.37965715 0.32099047 0.88000005 4279374092
0.38133335 0.32099047 0.88000005 4279439121
0.38300955 0.32099047 0.88000005 4279243286
0.38556001 0.32172 0.88200003 4279112468
0.38724002 0.32172 0.88200003 4279112723
0.38803813 0.32099047 0.88000005 4279178528
0.3906 0.32172 0.88200003 4278916142
0.3913905 0.32099047 0.88000005 4278719259
0.39217335 0.32026097 0.87800002 4278849801
0.39250001 0.31916669 0.87500006 4278980367
0.39416668 0.31916669 0.87500006 4278849301
0.39492857 0.31843716 0.87300003 4278718220
0.39386573 0.31624857 0.86700004 4278980099
0.39551717 0.31624857 0.86700004 4279242242
0.39716858 0.31624857 0.86700004 4278914561
0.39882001 0.31624857 0.86700004 4278652417
0.40047145 0.31624857 0.86700004 4278652418
0.40212288 0.31624857 0.86700004 4278718219
0.40377429 0.31624857 0.86700004 4278586388
0.40542573 0.31624857 0.86700004 4278454795
0.40989429 0.31843716 0.87300003 4278585859
0.41155714 0.31843716 0.87300003 4278717186
0.41322002 0.31843716 0.87300003 4278586114
0.41488287 0.31843716 0.87300003 4278455306
0.41654572 0.31843716 0.87300003 4278455827
0.41725051 0.31770763 0.87100005 4278456586
0.41890952 0.31770763 0.87100005 4278652162
0.42056859 0.31770763 0.87100005 4278848513
0.41931906 0.31551906 0.86500007 4278586369
0.42096671 0.31551906 0.86500007 4278324481
0.41088858 0.30676475 0.84100002 4278455553
0.41150954 0.30603525 0.83900005 4278520066
0.41310763 0.30603525 0.83900005 4278519812
0.41371715 0.30530572 0.83700001 4278519555
0.4172962 0.30676475 0.84100002 4278453763
0.41790193 0.30603525 0.83900005 4278453762
0.41950002 0.30603525 0.83900005 4278387969
0.42109811 0.30603525 0.83900005 4278322177
0.4226962 0.30603525 0.83900005 4278256641
0.42429432 0.30603525 0.83900005 4278256897
0.40355715 0.28998572 0.79500002 4278256897
0.40660003 0.29108 0.79800004 4278256897
0.40760857 0.29071525 0.79700005 4278322177
0.4091267 0.29071525 0.79700005 4278321921
0.40961429 0.28998572 0.79500002 4278256385
0.41112855 0.28998572 0.79500002 4278256641
0.41264284 0.28998572 0.79500002 4278256641
0.41311526 0.28925622 0.79300004 4278256641
0.41462573 0.28925622 0.79300004 4278256641
0.41508666 0.28852665 0.79100001 4278256642
0.41554001 0.28779715 0.78900003 4278322179
0.41651431 0.2874324 0.78800005 4278321922
0.41801524 0.2874324 0.78800005 4278256385
0.41845143 0.28670284 0.78600001 4278256385
0.41994858 0.28670284 0.78600001 4278321921
0.42144573 0.28670284 0.78600001 4278387457
0.42186669 0.28597334 0.78400004 4278321921
0.42336002 0.28597334 0.78400004 4278256385
-0.34049812 0.22256668 0.60700005 4281216569
-0.33822381 0.22183333 0.60500002 4281283125
-0.33762857 0.22219999 0.60600001 4281414958
-0.33591905 0.22183333 0.60500002 4281415462
-0.33476666 0.22183333 0.60500002 4281415469
-0.33416569 0.22219999 0.60600001 4281415476
-0.33301145 0.22219999 0.60600001 4281480239
-0.33240479 0.22256668 0.60700005 4281152043
-0.33179432 0.22293335 0.60800004 4280887593
-0.3306362 0.22293335 0.60800004 4280950567
-0.3311038 0.22403333 0.611 4281017368
-0.32994002 0.22403333 0.611 4280953097
-0.32877618 0.22403333 0.611 4280953120
-0.3276124 0.22403333 0.611 4280887607
-0.32698289 0.22440003 0.61200005 4280822840
-0.31298572 0.22110002 0.60300004 4281874749
-0.31183717 0.22110002 0.60300004 4282534206
-0.31120381 0.22146668 0.60400003 4283190852
-0.31005335 0.22146668 0.60400003 4282273865
-0.3094143 0.22183333 0.60500002 4281417005
-0.30826193 0.22183333 0.60500002 4280684817
-0.30761716 0.22219999 0.60600001 4280031010
-0.30696857 0.22256668 0.60700005 4280428338
-0.3063162 0.22293335 0.60800004 4280888113
-0.30566001 0.22330001 0.60900003 4281348399
-0.3055 0.22403333 0.611 4281807672
-0.30483431 0.22440003 0.61200005 4281742658
-0.30416477 0.22476669 0.61300004 4281741374
-0.30200857 0.22403333 0.611 4281875515
-0.30084476 0.22403333 0.611 4282006842
-0.29968095 0.22403333 0.611 4282203961
-0.29851714 0.22403333 0.611 4282465086
-0.29832667 0.22476669 0.61300004 4282793539
-0.29715908 0.22476669 0.61300004 4283187526
-0.29599145 0.22476669 0.61300004 4283845960
-0.29482383 0.22476669 0.61300004 4284501574
-0.29174003 0.22330001 0.60900003 4282069059
-0.29058 0.22330001 0.60900003 4279638574
-0.29037049 0.22403333 0.611 4279439641
-0.28920665 0.22403333 0.611 4279309097
-0.28851432 0.22440003 0.61200005 4281084473
-0.2873486 0.22440003 0.61200005 4282859590
-0.28711808 0.22513334 0.61400002 4282663763
-0.2864143 0.2255 0.61500001 4282464579
-0.28524286 0.2255 0.61500001 4281872436
-0.28407142 0.2255 0.61500001 4281280567
-0.28290001 0.2255 0.61500001 4281017659
-0.28310287 0.22660001 0.61800003 4280755513
-0.28192571 0.22660001 0.61800003 4281017656
-0.28074858 0.22660001 0.61800003 4281346615
-0.27957144 0.22660001 0.61800003 4282268726
-0.2208381 0.24933332 0.68000001 4280360716
-0.21954286 0.24933332 0.68000001 4280032779
-0.21888953 0.25006667 0.68200004 4279703816
-0.21790953 0.25043336 0.68300003 4279900677
-0.21660858 0.25043336 0.68300003 4280161027
-0.21562286 0.25079998 0.68400002 4281870082
-0.21432 0.25079998 0.68400002 4283579650
-0.21270572 0.25043336 0.68300003 4282266626
-0.21171428 0.25079998 0.68400002 4281016322
-0.20887333 0.24896668 0.67900002 4280359171
-0.20635714 0.2475 0.67500001 4279703821
-0.20507142 0.2475 0.67500001 4279900696
-0.20529523 0.24933332 0.68000001 4280097300
-0.204 0.24933332 0.68000001 4279441937
-0.17968477 0.23136668 0.63100004 4280752401
-0.17876573 0.23173334 0.63200003 4280424975
-0.17756191 0.23173334 0.63200003 4280359693
-0.1763581 0.23173334 0.63200003 4280293387
-0.17515428 0.23173334 0.63200003 4280026889
-0.17422572 0.2321 0.63300002 4279766039
-0.17302001 0.2321 0.63300002 4284324646
-0.17181428 0.2321 0.63300002 4288843035
-0.16619334 0.24896668 0.67900002 4280228121
-0.16514286 0.24933332 0.68000001 4279964705
-0.16384763 0.24933332 0.68000001 4279766806
-0.16303048 0.25006667 0.68200004 4279439371
-0.16173144 0.25006667 0.68200004 4279111943
-0.16043238 0.25006667 0.68200004 4279111938
-0.15913334 0.25006667 0.68200004 4279110408
-0.15783429 0.25006667 0.68200004 4278782222
-0.15653525 0.25006667 0.68200004 4278454540
-0.15546381 0.25043336 0.68300003 4278782217
-0.15393715 0.25006667 0.68200004 4279109639
-0.15219048 0.24933332 0.68000001 4279305732
-0.15089524 0.24933332 0.68000001 4279502601
-0.1496 0.24933332 0.68000001 4278913037
-0.14786857 0.24859999 0.67800003 4278389000
-0.14614478 0.24786668 0.67600006 4278651396
-0.14464286 0.2475 0.67500001 4278978307
-0.14335714 0.2475 0.67500001 4278912771
-0.14144 0.24640003 0.67200005 4278912770
-0.13974287 0.24566668 0.67000002 4278978817
-0.13784668 0.24456668 0.66700006 4279044353
-0.13637143 0.24420001 0.66600001 4278913281
-0.13510285 0.24420001 0.66600001 4278781446
-0.13363333 0.24383332 0.66500002 4278715403
-0.13196859 0.24310002 0.66300005 4278650375
-0.13031143 0.24236667 0.66100001 4278782211
-0.12827143 0.24090001 0.65700001 4278978567
-0.12663335 0.24016668 0.65500003 4279175180
-0.12500286 0.23943336 0.65300006 4279371527
-0.12356953 0.23906668 0.65200001 4278978306
-0.12232762 0.23906668 0.65200001 4278650881
-0.12071429 0.23833334 0.65000004 4278651393
-0.11947619 0.23833334 0.65000004 4278651394
-0.11769238 0.23723333 0.64700001 4278716932
-0.11646 0.23723333 0.64700001 4278847498
-0.11504953 0.23686667 0.64600003 4278716176
-0.11346667 0.23613335 0.64400005 4278584587
-0.11171715 0.23503335 0.64100003 4278715398
-0.11032382 0.23466669 0.64000005 4278846468
-0.1089343 0.23430003 0.63900006 4278913283
-0.10754857 0.23393333 0.63800001 4278978306
-0.106 0.23320001 0.63600004 4278978306
-0.10462382 0.23283336 0.63500005 4279044098
-0.10325143 0.23246667 0.634 4278913283
-0.10188286 0.2321 0.63300002 4278782984
-0.1005181 0.23173334 0.63200003 4279503885
-0.099314287 0.23173334 0.63200003 4280228119
-0.097955242 0.23136668 0.63100004 4281213985
-0.096753336 0.23136668 0.63100004 4282261269
-0.095248573 0.23063333 0.62900001 4281473802
-0.093900949 0.23026668 0.62800002 4280686342
-0.092557147 0.22990002 0.62700003 4280423170
-0.091217145 0.22953336 0.62600005 4280226568
-0.090024769 0.22953336 0.62600005 4279568910
-0.088832386 0.22953336 0.62600005 4278980373
-0.087499999 0.22916667 0.625 4279440413
-0.086309522 0.22916667 0.625 4279899667
-0.085119046 0.22916667 0.625 4279638025
-0.084197149 0.22990002 0.62700003 4279375109
-0.083002865 0.22990002 0.62700003 4279503873
-0.08233048 0.23136668 0.63100004 4279698964
-0.081514291 0.23246667 0.634 4279042343
-0.080433339 0.23283336 0.63500005 4278459688
-0.079348572 0.23320001 0.63600004 4281024298
-0.078505717 0.23430003 0.63900006 4283648543
-0.077288575 0.23430003 0.63900006 4283716884
-0.076190479 0.23466669 0.64000005 4283781663
-0.075088575 0.23503335 0.64100003 4283715626
-0.073867619 0.23503335 0.64100003 4283715890
-0.07344 0.2376 0.648 4283716154
-0.072428577 0.23833334 0.65000004 4283781165
-0.071519054 0.23943336 0.65300006 4283780897
-0.070490479 0.24016668 0.65500003 4283780893
-0.069242857 0.24016668 0.65500003 4283715609
-0.068099052 0.24053334 0.65600002 4283649569
-0.066849522 0.24053334 0.65600002 4283649322
-0.065800004 0.24126668 0.65800005 4283649836
-0.064546667 0.24126668 0.65800005 4283978285
-0.063485719 0.242 0.66000003 4284305967
-0.062228575 0.242 0.66000003 4284175154
-0.060971431 0.242 0.66000003 4284044078
-0.059804764 0.24236667 0.66100001 4283782186
-0.058545712 0.24236667 0.66100001 4283584543
-0.057373337 0.24273336 0.66200006 4283387156
-0.056112386 0.24273336 0.66200006 4283190807
-0.05476857 0.24236667 0.66100001 4282994714
-0.05359048 0.24273336 0.66200006 4282795545
-0.052329529 0.24273336 0.66200006 4282727704
-0.051068578 0.24273336 0.66200006 4282727956
-0.049657144 0.242 0.66000003 4282531600
-0.048400003 0.242 0.66000003 4282398996
-0.04714286 0.242 0.66000003 4282266392
-0.044493336 0.24126668 0.65800005 4282003225
-0.043240003 0.24126668 0.65800005 4281806363
-0.042114288 0.242 0.66000003 4281740829
-0.040857144 0.242 0.66000003 4281674258
-0.0396 0.242 0.66000003 4281345798
-0.03834286 0.242 0.66000003 4281082884
-0.037085716 0.242 0.66000003 4280885761
-0.03588286 0.24236667 0.66100001 4280690698
-0.034623809 0.24236667 0.66100001 4280559123
-0.033364762 0.24236667 0.66100001 4280425743
-0.032105718 0.24236667 0.66100001 4280425995
-0.030846667 0.24236667 0.66100001 4280426256
-0.029632382 0.24273336 0.66200006 4280493589
-0.028328571 0.24236667 0.66100001 4280622605
-0.027028572 0.242 0.66000003 4280162566
-0.02577143 0.242 0.66000003 4279701507
-0.024514288 0.242 0.66000003 4279111169
-0.010965714 0.22219999 0.60600001 4278914562
-0.0098114284 0.22219999 0.60600001 4278849029
-0.0086571425 0.22219999 0.60600001 4278980104
-0.0075028571 0.22219999 0.60600001 4279176453
-0.0063380953 0.22183333 0.60500002 4279111937
-0.0051857145 0.22183333 0.60500002 4279045892
-0.0040266667 0.22146668 0.60400003 4278914566
-0.0028809526 0.22183333 0.60500002 4278848515
-0.0017285715 0.22183333 0.60500002 4278915073
-0.00057714287 0.22219999 0.60600001 4278980609
0.00057714287 0.22219999 0.60600001 4278980609
0.0017314287 0.22219999 0.60600001 4279045893
0.0028857142 0.22219999 0.60600001 4278980106
0.00404 0.22219999 0.60600001 4278979591
0.0051942859 0.22219999 0.60600001 4279176196
0.0063380953 0.22183333 0.60500002 4279372802
0.0074904761 0.22183333 0.60500002 4279373825
0.0086285714 0.22146668 0.60400003 4279372801
0.0097952383 0.22183333 0.60500002 4279570945
0.01094762 0.22183333 0.60500002 4279767553
0.0121 0.22183333 0.60500002 4279636481
0.013274285 0.22219999 0.60600001 4279569419
0.014428572 0.22219999 0.60600001 4279963158
0.015582857 0.22219999 0.60600001 4280421899
0.016737143 0.22219999 0.60600001 4279963137
0.017920954 0.22256668 0.60700005 4279570177
0.019077145 0.22256668 0.60700005 4279570945
0.020200001 0.22219999 0.60600001 4279570690
0.021389525 0.22256668 0.60700005 4279832834
0.022545716 0.22256668 0.60700005 4280160260
0.023740953 0.22293335 0.60800004 4279702534
0.024940001 0.22330001 0.60900003 4279308293
0.026057145 0.22293335 0.60800004 4279111684
0.027215241 0.22293335 0.60800004 4278980611
0.028513333 0.22403333 0.611 4279111683
0.029677141 0.22403333 0.611 4279308037
0.030840952 0.22403333 0.611 4279373576
0.032057147 0.22440003 0.61200005 4279439621
0.033222858 0.22440003 0.61200005 4279241730
0.034388572 0.22440003 0.61200005 4279112195
0.03555429 0.22440003 0.61200005 4279307780
0.036780003 0.22476669 0.61300004 4279506184
0.037947621 0.22476669 0.61300004 4279243021
0.039179049 0.22513334 0.61400002 4278981128
0.040348571 0.22513334 0.61400002 4279307268
0.041585714 0.2255 0.61500001 4279636227
0.042757142 0.2255 0.61500001 4279504899
0.044000003 0.22586668 0.61600006 4279440898
0.045246668 0.22623335 0.61700004 4279638017
0.046346672 0.22586668 0.61600006 4279899650
0.047520004 0.22586668 0.61600006 4280358147
0.048772383 0.22623335 0.61700004 4280881667
0.050109524 0.22696666 0.61900002 4280423428
0.051288571 0.22696666 0.61900002 4280030982
0.05238286 0.22660001 0.61800003 4279966216
0.053646669 0.22696666 0.61900002 4279965446
0.054825716 0.22696666 0.61900002 4279899397
0.056004763 0.22696666 0.61900002 4279900679
0.057276189 0.22733332 0.62 4279639561
0.058457144 0.22733332 0.62 4279375885
0.059830479 0.22806668 0.62200004 4280097042
0.061113339 0.22843334 0.62300003 4280882957
0.0623 0.22843334 0.62300003 4279899656
0.063486665 0.22843334 0.62300003 4278982409
0.064777143 0.2288 0.62400001 4279572490
0.065965712 0.2288 0.62400001 4280162570
0.067261904 0.22916667 0.625 4280226826
0.068561912 0.22953336 0.62600005 4280358157
0.069754288 0.22953336 0.62600005 4280160785
0.071173333 0.23026668 0.62800002 4280030735
0.072369523 0.23026668 0.62800002 4280358413
0.07391715 0.23136668 0.63100004 4280750613
0.075119056 0.23136668 0.63100004 4280553245
0.076562852 0.2321 0.63300002 4280357653
0.077768579 0.2321 0.63300002 4280816397
0.078974292 0.2321 0.63300002 4281275667
0.080813333 0.23393333 0.63800001 4280686360
0.08215715 0.23430003 0.63900006 4280161811
0.083374292 0.23430003 0.63900006 4279964942
0.084723815 0.23466669 0.64000005 4279833616
0.086077146 0.23503335 0.64100003 4279374867
0.087298095 0.23503335 0.64100003 4278981393
0.088657148 0.23540001 0.64200002 4279767824
0.089879997 0.23540001 0.64200002 4280554515
0.091386676 0.23613335 0.64400005 4281013526
0.092757143 0.23650001 0.64500004 4281472014
0.094277143 0.23723333 0.64700001 4280687110
0.095509529 0.23723333 0.64700001 4279900429
0.096891426 0.2376 0.648 4280097045
