# .PCD v0.7 - Point Cloud Data file format
VERSION 0.7
FIELDS x y z rgba
SIZE 4 4 4 4
TYPE F F F U
COUNT 1 1 1 1
WIDTH 1133
HEIGHT 1
VIEWPOINT 0 0 0 1 0 0 0
POINTS 1133
DATA ascii
-0.49196863 0.12503716 1.2270001 4290493864
-0.49162674 0.12554666 1.2320001 4290494122
-0.4908686 0.1259543 1.2360001 4290494634
-0.4900952 0.12636191 1.24 4290294187
-0.49127337 0.12727906 1.2490001 4290097066
-0.48889431 0.12727906 1.2490001 4289703593
-0.49391618 0.12921523 1.268 4289375911
-0.49498954 0.13013239 1.2770001 4289244326
-0.49448574 0.13064191 1.2820001 4289178789
-0.49549809 0.13155904 1.291 4288913829
-0.49494854 0.13206857 1.296 4288715681
-0.49248001 0.13206857 1.296 4288584349
-0.49190196 0.1325781 1.3010001 4288453272
-0.49130481 0.13308764 1.3060001 4288387220
-0.49443144 0.13461621 1.3210001 4288321429
-0.49377719 0.13512571 1.3260001 4288255639
-0.49310383 0.13563524 1.3310001 4288190100
-0.49241146 0.13614477 1.3360001 4288059025
-0.49206665 0.13675618 1.342 4287992976
-0.49315813 0.13777526 1.3520001 4287730831
-0.49276 0.13838667 1.358 4287534222
-0.49378285 0.13940571 1.368 4287729550
-0.49512666 0.14052667 1.3790001 4287925132
-0.49642864 0.14164762 1.3900001 4287728522
-0.49378097 0.14164762 1.3900001 4287597706
-0.49325335 0.14225906 1.396 4287466890
-0.49270287 0.14287049 1.4020001 4287401614
-0.49387717 0.14399144 1.4130001 4287269523
-0.49535713 0.14521429 1.4250001 4287137675
-0.49679145 0.14643714 1.437 4287072131
-0.49405429 0.14643714 1.437 4286940800
-0.49336863 0.14704858 1.4430001 4286874750
-0.49469998 0.14827143 1.455 4286808701
-0.49801433 0.15010571 1.473 4286677116
-0.49520856 0.15010571 1.473 4286611068
-0.49674857 0.15143049 1.4860001 4286413948
-0.49391809 0.15143049 1.4860001 4286282867
-0.49538383 0.15275525 1.4990001 4286151787
-0.49252859 0.15275525 1.4990001 4286085746
-0.39330003 0.14766002 1.4490001 4283190341
-0.39054003 0.14766002 1.4490001 4283190602
-0.38778004 0.14766002 1.4490001 4283257680
-0.38502002 0.14766002 1.4490001 4283453783
-0.38226005 0.14766002 1.4490001 4283649862
-0.38107142 0.14827143 1.455 4283452726
-0.37674001 0.14766002 1.4490001 4283254590
-0.37398005 0.14766002 1.4490001 4283254087
-0.37122002 0.14766002 1.4490001 4283319364
-0.36846003 0.14766002 1.4490001 4282860354
-0.36418572 0.14704858 1.4430001 4282401605
-0.36294004 0.14766002 1.4490001 4282269257
-0.35868859 0.14704858 1.4430001 4282202699
-0.35742003 0.14766002 1.4490001 4281939790
-0.35466003 0.14766002 1.4490001 4281674823
-0.35044289 0.14704858 1.4430001 4281149760
-0.34769428 0.14704858 1.4430001 4280688182
-0.34351143 0.14643714 1.437 4280491053
-0.33935145 0.14582573 1.4310001 4280359463
-0.33662575 0.14582573 1.4310001 4280030753
-0.33250001 0.14521429 1.4250001 4279702043
-0.32978573 0.14521429 1.4250001 4279438869
-0.32707143 0.14521429 1.4250001 4279241748
-0.32435715 0.14521429 1.4250001 4279045396
-0.32164285 0.14521429 1.4250001 4278847758
-0.3189286 0.14521429 1.4250001 4278782217
-0.31621429 0.14521429 1.4250001 4278651141
-0.24520479 0.11871905 1.1650001 4279636507
-0.24298574 0.11871905 1.1650001 4279110922
-0.24076669 0.11871905 1.1650001 4278651402
-0.23936667 0.11912666 1.169 4278848522
-0.48329049 0.10951906 1.0550001 4286676612
-0.48128098 0.10951906 1.0550001 4286611076
-0.48063433 0.10983048 1.0580001 4286545024
-0.48133332 0.11045333 1.064 4286414204
-0.48110861 0.11086858 1.0680001 4286348158
-0.48042002 0.11118001 1.0710001 4286217344
-0.47972 0.11149143 1.074 4286151552
-0.47767431 0.11149143 1.074 4286086016
-0.47872859 0.1122181 1.0810001 4286085499
-0.47843334 0.11263334 1.085 4285953911
-0.47768381 0.11294477 1.0880001 4285887356
-0.48653999 0.11554 1.113 4285755266
-0.48572573 0.11585143 1.1160001 4285688698
-0.48360002 0.11585143 1.1160001 4285097842
-0.48147431 0.11585143 1.1160001 4284573552
-0.48235527 0.1165781 1.123 4285228911
-0.48021621 0.1165781 1.123 4285887088
-0.48148286 0.11740857 1.131 4286479986
-0.47932857 0.11740857 1.131 4287072382
-0.48983142 0.12052286 1.161 4288057994
-0.49098 0.12135334 1.169 4289041541
-0.49209809 0.12218381 1.177 4289173377
-0.491521 0.12259907 1.1810001 4289306507
-0.49092859 0.12301429 1.1850001 4289701782
-0.48867145 0.12301429 1.1850001 4290162589
-0.48969814 0.12384477 1.1930001 4290427045
-0.48905998 0.12426001 1.197 4290689968
-0.49044004 0.1251943 1.2060001 4290625212
-0.48976189 0.12560952 1.21 4290624952
-0.4890686 0.12602477 1.2140001 4290624948
-0.49036476 0.12695906 1.223 4290690737
-0.49162674 0.12789334 1.2320001 4290625711
-0.4908686 0.12830856 1.2360001 4290625711
-0.49207142 0.12924285 1.245 4290492591
-0.49127337 0.1296581 1.2490001 4290360493
-0.49085146 0.13017714 1.2540001 4289835179
-0.49547434 0.13204572 1.2720001 4289375911
-0.49498954 0.13256477 1.2770001 4289244580
-0.49448574 0.13308382 1.2820001 4289112228
-0.49396285 0.13360286 1.2870001 4288912292
-0.49494854 0.13453715 1.296 4288715424
-0.49248001 0.13453715 1.296 4288584093
-0.49190196 0.1350562 1.3010001 4288452762
-0.49318573 0.1360943 1.3110001 4288321430
-0.49256003 0.13661334 1.3160001 4288255636
-0.49377719 0.13765144 1.3260001 4288190099
-0.49310383 0.13817048 1.3310001 4288190097
-0.49241146 0.13868953 1.3360001 4288059023
-0.49206665 0.13931239 1.342 4287927694
-0.49315813 0.14035049 1.3520001 4287665549
-0.49276 0.14097333 1.358 4287402893
-0.49378285 0.14201143 1.368 4287727501
-0.49512666 0.14315334 1.3790001 4288056202
-0.49642864 0.14429525 1.3900001 4287794568
-0.49591237 0.1449181 1.396 4287532169
-0.49325335 0.1449181 1.396 4287466378
-0.49446005 0.14606 1.4070001 4287400331
-0.49387717 0.14668287 1.4130001 4287203213
-0.49535713 0.14792858 1.4250001 4287072135
-0.49679145 0.14917429 1.437 4286941058
-0.49611717 0.14979714 1.4430001 4286875263
-0.49542004 0.15042001 1.4490001 4286809212
-0.49469998 0.15104286 1.455 4286742906
-0.49801433 0.15291144 1.473 4286611321
-0.49520856 0.15291144 1.473 4286479742
-0.49474284 0.15363809 1.48 4286348418
-0.49391809 0.15426095 1.4860001 4286217337
-0.49538383 0.15561049 1.4990001 4286086512
-0.39330003 0.15042001 1.4490001 4283059267
-0.39054003 0.15042001 1.4490001 4282994245
-0.38778004 0.15042001 1.4490001 4282994246
-0.38502002 0.15042001 1.4490001 4282928710
-0.38226005 0.15042001 1.4490001 4282928448
-0.38107142 0.15104286 1.455 4282993722
-0.37674001 0.15042001 1.4490001 4283057727
-0.37398005 0.15042001 1.4490001 4282861125
-0.36968288 0.14979714 1.4430001 4282729283
-0.3669343 0.14979714 1.4430001 4282270785
-0.36418572 0.14979714 1.4430001 4281876547
-0.35993427 0.14917429 1.437 4281874758
-0.35868859 0.14979714 1.4430001 4281874246
-0.35594001 0.14979714 1.4430001 4281545030
-0.35319144 0.14979714 1.4430001 4281216320
-0.35044289 0.14979714 1.4430001 4280886587
-0.34480289 0.14855145 1.4310001 4280623668
-0.34207717 0.14855145 1.4310001 4280359725
-0.33792859 0.14792858 1.4250001 4280097318
-0.33521429 0.14792858 1.4250001 4279768606
-0.33250001 0.14792858 1.4250001 4279505692
-0.32978573 0.14792858 1.4250001 4279373338
-0.32707143 0.14792858 1.4250001 4279242008
-0.32435715 0.14792858 1.4250001 4279045399
-0.32164285 0.14792858 1.4250001 4278913553
-0.3189286 0.14792858 1.4250001 4278913291
-0.31621429 0.14792858 1.4250001 4278978569
-0.31218001 0.14730571 1.419 4278846728
-0.30947715 0.14730571 1.419 4278782220
-0.24520479 0.1209381 1.1650001 4279832082
-0.24298574 0.1209381 1.1650001 4279110149
-0.24076669 0.1209381 1.1650001 4278454534
-0.4846648 0.11184572 1.0580001 4286611331
-0.48264956 0.11184572 1.0580001 4286545283
-0.48199719 0.11216287 1.0610001 4286479489
-0.48133332 0.11248 1.064 4286348415
-0.48110861 0.11290286 1.0680001 4286282623
-0.48042002 0.11322001 1.0710001 4286151807
-0.47972 0.11353714 1.074 4286020984
-0.47945336 0.11396001 1.0780001 4285824113
-0.47872859 0.11427715 1.0810001 4285627503
-0.47975621 0.11501715 1.0880001 4285625966
-0.48690385 0.11723715 1.1090001 4285690227
-0.48653999 0.11766001 1.113 4285689209
-0.48746666 0.1184 1.12 4285686132
-0.48533332 0.1184 1.12 4285883504
-0.48320001 0.1184 1.12 4286146679
-0.48235527 0.11871714 1.123 4286872190
-0.48192671 0.11914001 1.1270001 4287597946
-0.48446286 0.12030286 1.138 4287928183
-0.48865241 0.12188857 1.153 4288258444
-0.48983142 0.12273429 1.161 4288979361
-0.49098 0.12358 1.169 4289634719
-0.49209809 0.12442572 1.177 4289834142
-0.491521 0.12484859 1.1810001 4290033826
-0.49092859 0.12527142 1.1850001 4290230182
-0.48867145 0.12527142 1.1850001 4290426796
-0.48805618 0.12569429 1.189 4290558899
-0.48905998 0.12654001 1.197 4290756281
-0.48881334 0.12706856 1.202 4290756288
-0.48814291 0.12749144 1.2060001 4290755777
-0.4890686 0.12833716 1.2140001 4290756290
-0.49036476 0.12928857 1.223 4290759867
-0.49322289 0.13066287 1.2360001 4290691764
-0.49245715 0.13108571 1.24 4290691252
-0.4936524 0.13203715 1.2490001 4290427316
-0.49324003 0.13256571 1.2540001 4290165424
-0.49280861 0.1330943 1.2590001 4289834925
-0.49547434 0.13446857 1.2720001 4289507240
-0.49498954 0.13499714 1.2770001 4289309347
-0.4925572 0.13499714 1.2770001 4289176739
-0.49396285 0.13605429 1.2870001 4288914083
-0.49303901 0.13647714 1.291 4288717216
-0.49248001 0.13700572 1.296 4288583838
-0.49379241 0.13806288 1.3060001 4288452251
-0.49318573 0.13859144 1.3110001 4288321177
-0.49443144 0.13964859 1.3210001 4288189844
-0.49377719 0.14017715 1.3260001 4288124303
-0.49310383 0.14070572 1.3310001 4288124558
-0.49241146 0.14123429 1.3360001 4287993229
-0.49206665 0.14186858 1.342 4287862156
-0.49315813 0.14292572 1.3520001 4287665548
-0.49276 0.14356001 1.358 4287533964
-0.49378285 0.14461716 1.368 4287663500
-0.49512666 0.14578 1.3790001 4287859593
-0.49642864 0.14694287 1.3900001 4287663239
-0.49591237 0.14757715 1.396 4287532424
-0.49537337 0.14821143 1.4020001 4287400330
-0.49446005 0.14873999 1.4070001 4287333768
-0.49387717 0.14937431 1.4130001 4287203207
-0.49535713 0.15064286 1.4250001 4287137412
-0.49679145 0.15191144 1.437 4287006338
-0.49611717 0.15254572 1.4430001 4286875262
-0.49542004 0.15318002 1.4490001 4286743418
-0.49469998 0.15381429 1.455 4286677112
-0.49801433 0.15571715 1.473 4286545527
-0.49520856 0.15571715 1.473 4286479232
-0.49674857 0.15709144 1.4860001 4286348169
-0.49391809 0.15709144 1.4860001 4286217087
-0.49538383 0.15846571 1.4990001 4286085750
-0.39004287 0.15191144 1.437 4283190593
-0.39054003 0.15318002 1.4490001 4282928449
-0.38778004 0.15318002 1.4490001 4282666299
-0.38342571 0.15254572 1.4430001 4282467894
-0.38226005 0.15318002 1.4490001 4282269754
-0.37950003 0.15318002 1.4490001 4282335295
-0.37674001 0.15318002 1.4490001 4282401089
-0.37243143 0.15254572 1.4430001 4282335811
-0.36968288 0.15254572 1.4430001 4282204993
-0.3669343 0.15254572 1.4430001 4282007616
-0.36267143 0.15191144 1.437 4281876034
-0.35843146 0.15127715 1.4310001 4281809220
-0.35719714 0.15191144 1.437 4281808193
-0.35446 0.15191144 1.437 4281611070
-0.35172287 0.15191144 1.437 4281413434
-0.3489857 0.15191144 1.437 4281150262
-0.34624857 0.15191144 1.437 4280887090
-0.34064287 0.15064286 1.4250001 4280623406
-0.33792859 0.15064286 1.4250001 4280424997
-0.33521429 0.15064286 1.4250001 4280030748
-0.33250001 0.15064286 1.4250001 4279702813
-0.32978573 0.15064286 1.4250001 4279505951
-0.32707143 0.15064286 1.4250001 4279309341
-0.32435715 0.15064286 1.4250001 4279242523
-0.32028857 0.15000857 1.419 4279176212
-0.32027146 0.15127715 1.4310001 4279044366
-0.31621429 0.15064286 1.4250001 4278978318
-0.31350002 0.15064286 1.4250001 4278978575
-0.30947715 0.15000857 1.419 4278913297
-0.4846648 0.11386096 1.0580001 4286611588
-0.48264956 0.11386096 1.0580001 4286477444
-0.48199719 0.11418382 1.0610001 4286413440
-0.48133332 0.11450667 1.064 4286282876
-0.48110861 0.11493715 1.0680001 4286217336
-0.48042002 0.11526 1.0710001 4286086517
-0.47972 0.11558285 1.074 4285954156
-0.47767431 0.11558285 1.074 4285556068
-0.47872859 0.1163362 1.0810001 4285163110
-0.47666958 0.1163362 1.0810001 4285360232
-0.48690385 0.11934953 1.1090001 4285557872
-0.48785144 0.12010287 1.1160001 4285623416
-0.48746666 0.12053333 1.12 4285691250
-0.48533332 0.12053333 1.12 4286742381
-0.48320001 0.12053333 1.12 4287793786
-0.48407337 0.12128668 1.1270001 4288517511
-0.48363715 0.12171714 1.131 4289305485
-0.48616573 0.12290096 1.1420001 4289372563
-0.49034765 0.12451525 1.1570001 4289504411
-0.48983142 0.12494572 1.161 4289898404
-0.48930001 0.12537619 1.1650001 4290294180
-0.49042574 0.12623715 1.1730001 4290558885
-0.491521 0.12709811 1.1810001 4290820782
-0.49092859 0.12752858 1.1850001 4290757559
-0.48867145 0.12752858 1.1850001 4290691514
-0.48969814 0.12838952 1.1930001 4290756541
-0.48905998 0.12882 1.197 4290887615
-0.49044004 0.12978858 1.2060001 4290887616
-0.48814291 0.12978858 1.2060001 4290953153
-0.4890686 0.13064952 1.2140001 4290887618
-0.48876098 0.13118763 1.2190001 4290822590
-0.49162674 0.13258669 1.2320001 4290823354
-0.49245715 0.13344762 1.24 4290822330
-0.4936524 0.13441619 1.2490001 4290362042
-0.49324003 0.13495429 1.2540001 4289968818
-0.49280861 0.1354924 1.2590001 4289769386
-0.49547434 0.13689144 1.2720001 4289637799
-0.49305147 0.13689144 1.2720001 4289439908
-0.4925572 0.13742954 1.2770001 4289242530
-0.49204379 0.13796763 1.2820001 4288979872
-0.49303901 0.13893619 1.291 4288782495
-0.49248001 0.13947429 1.296 4288583582
-0.49379241 0.14055049 1.3060001 4288452250
-0.49318573 0.14108858 1.3110001 4288255638
-0.49443144 0.14216477 1.3210001 4288124306
-0.49377719 0.14270286 1.3260001 4288124303
-0.49310383 0.14324096 1.3310001 4288124046
-0.49241146 0.14377905 1.3360001 4287927437
-0.49206665 0.14442475 1.342 4287796364
-0.49315813 0.14550097 1.3520001 4287731339
-0.49276 0.14614667 1.358 4287664266
-0.49378285 0.14722286 1.368 4287664009
-0.49512666 0.14840667 1.3790001 4287728264
-0.49857143 0.15023619 1.396 4287597447
-0.49804384 0.15088192 1.4020001 4287531402
-0.49537337 0.15088192 1.4020001 4287400076
-0.49446005 0.15142001 1.4070001 4287334281
-0.4959743 0.15271142 1.419 4287268742
-0.49535713 0.15335715 1.4250001 4287203205
-0.49471721 0.15400288 1.4310001 4287006597
-0.49405429 0.15464857 1.437 4286875009
-0.49542004 0.15594001 1.4490001 4286743421
-0.49469998 0.15658572 1.455 4286676858
-0.49598575 0.15787715 1.4670001 4286545272
-0.49520856 0.15852286 1.473 4286479228
-0.49474284 0.15927619 1.48 4286348161
-0.49391809 0.1599219 1.4860001 4286282364
-0.49538383 0.16132095 1.4990001 4286085750
-0.39004287 0.15464857 1.437 4283322950
-0.39054003 0.15594001 1.4490001 4282798153
-0.38617432 0.15529428 1.4430001 4282336050
-0.38342571 0.15529428 1.4430001 4281996571
-0.38067716 0.15529428 1.4430001 4281673261
-0.37792858 0.15529428 1.4430001 4281743167
-0.37518001 0.15529428 1.4430001 4281809727
-0.37088287 0.15464857 1.437 4281745470
-0.3681457 0.15464857 1.437 4281744958
-0.36540857 0.15464857 1.437 4281809983
-0.36115718 0.15400288 1.4310001 4281875264
-0.35692859 0.15335715 1.4250001 4281809473
-0.35421431 0.15335715 1.4250001 4281742911
-0.3515 0.15335715 1.4250001 4281677117
-0.34878573 0.15335715 1.4250001 4281676090
-0.34315717 0.15206572 1.4130001 4281413176
-0.34046572 0.15206572 1.4130001 4281150005
-0.33920857 0.15271142 1.419 4280952627
-0.33650571 0.15271142 1.419 4280819497
-0.33380288 0.15271142 1.419 4280358688
-0.33109999 0.15271142 1.419 4279899679
-0.32839715 0.15271142 1.419 4279637277
-0.32569429 0.15271142 1.419 4279440155
-0.32299146 0.15271142 1.419 4279439640
-0.32164285 0.15335715 1.4250001 4279438610
-0.32027146 0.15400288 1.4310001 4279240972
-0.31621429 0.15335715 1.4250001 4279044626
-0.31218001 0.15271142 1.419 4279045144
-0.30947715 0.15271142 1.419 4279110932
-0.48264956 0.11587621 1.0580001 4286347142
-0.48199719 0.11620478 1.0610001 4286216319
-0.48314291 0.11697143 1.0680001 4285953657
-0.48246002 0.1173 1.0710001 4285756786
-0.48176572 0.11762857 1.074 4285756524
-0.48150671 0.11806668 1.0780001 4285822049
-0.47945336 0.11806668 1.0780001 4285688407
-0.49112862 0.12146191 1.1090001 4285619804
-0.48901623 0.12146191 1.1090001 4286014818
-0.48866001 0.1219 1.113 4286344556
-0.48785144 0.12222858 1.1160001 4286872951
-0.48877236 0.12299524 1.123 4287401329
-0.48663336 0.12299524 1.123 4287928171
-0.48622003 0.12343334 1.1270001 4288455038
-0.48708001 0.1242 1.1340001 4289110929
-0.48663047 0.12463809 1.138 4289832608
-0.48616573 0.12507619 1.1420001 4289964976
-0.48865241 0.12628095 1.153 4290163115
-0.48983142 0.12715714 1.161 4290362279
-0.48930001 0.12759525 1.1650001 4290627241
-0.49042574 0.12847143 1.1730001 4290755500
-0.491521 0.12934764 1.1810001 4290886842
-0.49092859 0.12978572 1.1850001 4290888905
-0.49032092 0.13022381 1.189 4290888648
-0.49133998 0.1311 1.197 4290953928
-0.49110287 0.13164762 1.202 4291019460
-0.49044004 0.13208573 1.2060001 4291084993
-0.48976189 0.13252382 1.21 4291216065
-0.4890686 0.13296191 1.2140001 4291018946
-0.48876098 0.13350953 1.2190001 4290887617
-0.48963144 0.13438572 1.2270001 4290756800
-0.49245715 0.13580953 1.24 4290691520
-0.4936524 0.13679525 1.2490001 4290362049
-0.49324003 0.13734286 1.2540001 4290034356
-0.49280861 0.13789047 1.2590001 4289834151
-0.49547434 0.13931429 1.2720001 4289637286
-0.49498954 0.13986191 1.2770001 4289440677
-0.4925572 0.13986191 1.2770001 4289178529
-0.49204379 0.14040953 1.2820001 4288979101
-0.49303901 0.14139523 1.291 4288847774
-0.49248001 0.14194284 1.296 4288583071
-0.49379241 0.14303811 1.3060001 4288385945
-0.49318573 0.14358573 1.3110001 4288255636
-0.49256003 0.14413334 1.3160001 4288124305
-0.49377719 0.14522858 1.3260001 4288058511
-0.49310383 0.14577621 1.3310001 4288058510
-0.49462286 0.14698096 1.342 4287861646
-0.49390003 0.14752859 1.3470001 4287730572
-0.49315813 0.14807621 1.3520001 4287664267
-0.49276 0.14873333 1.358 4287663752
-0.49197811 0.14928097 1.363 4287729030
-0.49728096 0.15169048 1.3850001 4287793799
-0.49857143 0.15289524 1.396 4287597192
-0.49804384 0.15355238 1.4020001 4287465355
-0.49713999 0.1541 1.4070001 4287334799
-0.49656859 0.15475716 1.4130001 4287204234
-0.4959743 0.15541428 1.419 4287137414
-0.49535713 0.15607144 1.4250001 4287071111
-0.49471721 0.15672858 1.4310001 4286939528
-0.49405429 0.15738572 1.437 4286807940
-0.49336863 0.15804286 1.4430001 4286676864
-0.49469998 0.15935715 1.455 4286545788
-0.49598575 0.16067144 1.4670001 4286479737
-0.4975619 0.16209523 1.48 4286479225
-0.49674857 0.16275239 1.4860001 4286347642
-0.49591237 0.16340953 1.4920001 4286216312
-0.49538383 0.1641762 1.4990001 4286019191
-0.38892287 0.15804286 1.4430001 4282797650
-0.38617432 0.15804286 1.4430001 4282399273
-0.38183144 0.15738572 1.437 4281802753
-0.3790943 0.15738572 1.437 4281208608
-0.37635717 0.15738572 1.437 4280753728
-0.37362 0.15738572 1.437 4280299069
-0.36933431 0.15672858 1.4310001 4280496186
-0.36660859 0.15672858 1.4310001 4280693308
-0.36388287 0.15672858 1.4310001 4281087550
-0.35964289 0.15607144 1.4250001 4281547326
-0.35692859 0.15607144 1.4250001 4281612351
-0.35272285 0.15541428 1.419 4281743165
-0.35001999 0.15541428 1.419 4281808700
-0.34584859 0.15475716 1.4130001 4281874235
-0.34315717 0.15475716 1.4130001 4281611834
-0.34046572 0.15475716 1.4130001 4281415225
-0.33777431 0.15475716 1.4130001 4281545528
-0.33508289 0.15475716 1.4130001 4281610542
-0.33239144 0.15475716 1.4130001 4281150757
-0.32970002 0.15475716 1.4130001 4280625696
-0.32839715 0.15541428 1.419 4280362012
-0.32569429 0.15541428 1.419 4280163865
-0.32299146 0.15541428 1.419 4279900950
-0.31893429 0.15475716 1.4130001 4279638032
-0.31624287 0.15475716 1.4130001 4279375114
-0.31621429 0.15607144 1.4250001 4279177750
-0.31350002 0.15607144 1.4250001 4279111714
-0.30947715 0.15541428 1.419 4279045656
-0.48314291 0.11900572 1.0680001 4285690477
-0.48246002 0.11934001 1.0710001 4285295723
-0.48490575 0.1204543 1.0810001 4285491050
-0.48463336 0.12090001 1.085 4285690471
-0.48256665 0.12090001 1.085 4285886565
-0.49112862 0.12357429 1.1090001 4286151017
-0.49078003 0.12402001 1.113 4286677870
-0.48866001 0.12402001 1.113 4287204730
-0.4896 0.12479999 1.12 4288125063
-0.48877236 0.12513429 1.123 4289109127
-0.48663336 0.12513429 1.123 4289110407
-0.48622003 0.12558001 1.1270001 4289111699
-0.48879808 0.12680571 1.138 4289768608
-0.48663047 0.12680571 1.138 4290425514
-0.48616573 0.12725145 1.1420001 4290623669
-0.48865241 0.12847714 1.153 4290821553
-0.48983142 0.12936857 1.161 4290888622
-0.48930001 0.1298143 1.1650001 4290954673
-0.48875338 0.13026001 1.169 4290952371
-0.491521 0.13159716 1.1810001 4290953405
-0.49092859 0.13204286 1.1850001 4291020230
-0.49032092 0.13248858 1.189 4291151046
-0.48969814 0.13293429 1.1930001 4291151047
-0.49110287 0.13393715 1.202 4291216580
-0.49044004 0.13438286 1.2060001 4291347649
-0.48976189 0.13482858 1.21 4291477955
-0.4890686 0.13527429 1.2140001 4291215814
-0.48876098 0.13583145 1.2190001 4290953155
-0.48963144 0.13672288 1.2270001 4290756033
-0.49245715 0.13817143 1.24 4290559167
-0.4936524 0.1391743 1.2490001 4290296765
-0.49324003 0.13973142 1.2540001 4290099892
-0.49437431 0.14073429 1.263 4289898924
-0.49547434 0.14173715 1.2720001 4289702827
-0.49498954 0.1422943 1.2770001 4289440426
-0.4925572 0.1422943 1.2770001 4289177506
-0.49204379 0.14285143 1.2820001 4289043867
-0.49303901 0.14385428 1.291 4288913309
-0.49248001 0.14441143 1.296 4288582815
-0.49379241 0.14552572 1.3060001 4288320922
-0.49130481 0.14552572 1.3060001 4288255893
-0.49256003 0.14664002 1.3160001 4288189585
-0.49191529 0.14719714 1.3210001 4288058509
-0.49310383 0.14831144 1.3310001 4287992715
-0.49462286 0.14953715 1.342 4287861386
-0.49390003 0.1500943 1.3470001 4287729546
-0.49534667 0.15132 1.358 4287663242
-0.49276 0.15132 1.358 4287663238
-0.49197811 0.15187715 1.363 4287794306
-0.49333146 0.15310286 1.3740001 4287924868
-0.49642864 0.15488572 1.3900001 4287662470
-0.49804384 0.15622286 1.4020001 4287400072
-0.49537337 0.15622286 1.4020001 4287269514
-0.49656859 0.15744859 1.4130001 4287137926
-0.4959743 0.15811715 1.419 4287071874
-0.49535713 0.15878572 1.4250001 4287005315
-0.49264288 0.15878572 1.4250001 4286874245
-0.49405429 0.16012286 1.437 4286742914
-0.49336863 0.16079144 1.4430001 4286611584
-0.49469998 0.16212857 1.455 4286479996
-0.49598575 0.16346572 1.4670001 4286479737
-0.4975619 0.16491428 1.48 4286478713
-0.49674857 0.16558285 1.4860001 4286281593
-0.49823904 0.16703144 1.4990001 4286150007
-0.38892287 0.16079144 1.4430001 4282797398
-0.38456857 0.16012286 1.437 4282465343
-0.38183144 0.16012286 1.437 4281609257
-0.3790943 0.16012286 1.437 4280751920
-0.37635717 0.16012286 1.437 4279763511
-0.37206003 0.1594543 1.4310001 4278792236
-0.36933431 0.1594543 1.4310001 4279244578
-0.36660859 0.1594543 1.4310001 4279705892
-0.36388287 0.1594543 1.4310001 4280429350
-0.35964289 0.15878572 1.4250001 4281217323
-0.35542575 0.15811715 1.419 4281481008
-0.35272285 0.15811715 1.419 4281743155
-0.34854004 0.15744859 1.4130001 4281875766
-0.34438002 0.15678 1.4070001 4282072630
-0.34169999 0.15678 1.4070001 4281876535
-0.33781525 0.15622286 1.4020001 4281745213
-0.33514476 0.15622286 1.4020001 4282072899
-0.33247429 0.15622286 1.4020001 4282465589
-0.32980382 0.15622286 1.4020001 4281940775
-0.32970002 0.15744859 1.4130001 4281413155
-0.32700861 0.15744859 1.4130001 4281151775
-0.32431716 0.15744859 1.4130001 4280886042
-0.32162574 0.15744859 1.4130001 4280361493
-0.31893429 0.15744859 1.4130001 4279900433
-0.31624287 0.15744859 1.4130001 4279573006
-0.31488287 0.15811715 1.419 4279308818
-0.31086001 0.15744859 1.4130001 4279111958
-0.30816859 0.15744859 1.4130001 4278980625
-0.21666001 0.15744859 1.4130001 4281544780
-0.21396859 0.15744859 1.4130001 4281611872
-0.21127716 0.15744859 1.4130001 4281743188
-0.20202002 0.16079144 1.4430001 4283256630
-0.19927144 0.16079144 1.4430001 4282667572
-0.19420289 0.16346572 1.4670001 4282468157
-0.19140859 0.16346572 1.4670001 4278462517
-0.18938573 0.16413429 1.473 4279306797
-0.18658 0.16413429 1.473 4280161339
-0.48246002 0.12138001 1.0710001 4285622373
-0.4867 0.12296667 1.085 4286280297
-0.48597336 0.12330666 1.0880001 4287004014
-0.48390099 0.12330666 1.0880001 4287267955
-0.49290004 0.12614 1.113 4287532150
-0.49078003 0.12614 1.113 4287927674
-0.48997715 0.12648 1.1160001 4288389001
-0.4896 0.12693334 1.12 4289045912
-0.49051338 0.12772667 1.1270001 4289703069
-0.48836669 0.12772667 1.1270001 4289900195
-0.48622003 0.12772667 1.1270001 4290032041
-0.48879808 0.12897334 1.138 4290360752
-0.48663047 0.12897334 1.138 4290689461
-0.48786858 0.12988001 1.146 4290821306
-0.48865241 0.13067333 1.153 4290953400
-0.48983142 0.13158 1.161 4291019702
-0.48930001 0.13203335 1.1650001 4291151032
-0.49042574 0.13294001 1.1730001 4291085755
-0.491521 0.13384669 1.1810001 4291086015
-0.49092859 0.13430001 1.1850001 4291151300
-0.49032092 0.13475333 1.189 4291152325
-0.49133998 0.13566001 1.197 4291216326
-0.49110287 0.13622667 1.202 4291216580
-0.49206671 0.13713333 1.21 4291282114
-0.48976189 0.13713333 1.21 4291346630
-0.4890686 0.13758668 1.2140001 4291215818
-0.48876098 0.13815333 1.2190001 4291019974
-0.48963144 0.13906002 1.2270001 4290886851
-0.4908686 0.14008002 1.2360001 4290689726
-0.49207142 0.1411 1.245 4290362041
-0.49324003 0.14212 1.2540001 4290034357
-0.49437431 0.14314 1.263 4289834417
-0.49547434 0.14416 1.2720001 4289637296
-0.49498954 0.14472668 1.2770001 4289374127
-0.4925572 0.14472668 1.2770001 4289110948
-0.49204379 0.14529334 1.2820001 4288978073
-0.49303901 0.14631332 1.291 4288847772
-0.49248001 0.14688 1.296 4288582815
-0.49190196 0.14744668 1.3010001 4288386714
-0.49130481 0.14801335 1.3060001 4288255126
-0.49256003 0.14914668 1.3160001 4288123536
-0.49191529 0.14971334 1.3210001 4288057995
-0.49310383 0.15084668 1.3310001 4287992713
-0.49462286 0.15209334 1.342 4287860871
-0.49390003 0.15266001 1.3470001 4287728776
-0.49534667 0.15390667 1.358 4287663242
-0.49276 0.15390667 1.358 4287597956
-0.49197811 0.15447333 1.363 4287532158
-0.49333146 0.15572001 1.3740001 4287466113
-0.49464291 0.15696669 1.3850001 4287400068
-0.49591237 0.15821333 1.396 4287268996
-0.49537337 0.15889335 1.4020001 4287137413
-0.49656859 0.16014002 1.4130001 4287071362
-0.4959743 0.16082001 1.419 4287005311
-0.49535713 0.16150001 1.4250001 4286939520
-0.49264288 0.16150001 1.4250001 4286743170
-0.49405429 0.16286001 1.437 4286612353
-0.49336863 0.16354001 1.4430001 4286545536
-0.49469998 0.1649 1.455 4286479228
-0.49598575 0.16626 1.4670001 4286413177
-0.4975619 0.16773333 1.48 4286347128
-0.49674857 0.16841334 1.4860001 4286216312
-0.49591237 0.16909336 1.4920001 4286084213
-0.49538383 0.16988668 1.4990001 4285953139
-0.36262858 0.15141334 1.3360001 4284500051
-0.36008382 0.15141334 1.3360001 4284700762
-0.35753906 0.15141334 1.3360001 4284901461
-0.3549943 0.15141334 1.3360001 4284442705
-0.35244954 0.15141334 1.3360001 4284049471
-0.3732143 0.16150001 1.4250001 4283452718
-0.37050003 0.16150001 1.4250001 4282856220
-0.36778572 0.16150001 1.4250001 4282325770
-0.36507145 0.16150001 1.4250001 4281795340
-0.36235714 0.16150001 1.4250001 4280753167
-0.35383812 0.15889335 1.4020001 4279707928
-0.35242 0.15946001 1.4070001 4280168482
-0.34849715 0.15889335 1.4020001 4280629289
-0.34582669 0.15889335 1.4020001 4280827184
-0.34168762 0.15821333 1.396 4280959794
-0.33902857 0.15821333 1.396 4280959541
-0.33636954 0.15821333 1.396 4280959298
-0.33371046 0.15821333 1.396 4281286223
-0.33105144 0.15821333 1.396 4281678908
-0.32839239 0.15821333 1.396 4281415465
-0.32713336 0.15889335 1.4020001 4281152294
-0.31798288 0.15572001 1.3740001 4280954659
-0.32041523 0.15821333 1.396 4280756507
-0.31775621 0.15821333 1.396 4280362260
-0.31509715 0.15821333 1.396 4279966227
-0.3124381 0.15821333 1.396 4279506706
-0.30977905 0.15821333 1.396 4279112462
-0.30844003 0.15889335 1.4020001 4278915594
-0.30816859 0.16014002 1.4130001 4278784521
-0.24771143 0.16286001 1.437 4286283652
-0.24395144 0.16218002 1.4310001 4286021242
-0.24122573 0.16218002 1.4310001 4285758837
-0.2395 0.16286001 1.437 4284380529
-0.23577431 0.16218002 1.4310001 4283002226
-0.23304859 0.16218002 1.4310001 4283261556
-0.22839142 0.16082001 1.419 4283586628
-0.22664286 0.16150001 1.4250001 4282598933
-0.22392859 0.16150001 1.4250001 4281609767
-0.21935144 0.16014002 1.4130001 4281871417
-0.21666001 0.16014002 1.4130001 4282198620
-0.21396859 0.16014002 1.4130001 4282733183
-0.21127716 0.16014002 1.4130001 4283267694
-0.20476858 0.16354001 1.4430001 4281159473
-0.20202002 0.16354001 1.4430001 4280761358
-0.19927144 0.16354001 1.4430001 4280428807
-0.1989743 0.16558 1.4610001 4281415681
-0.19619143 0.16558 1.4610001 4282468097
-0.19420289 0.16626 1.4670001 4280821505
-0.19140859 0.16626 1.4670001 4279174155
-0.18861429 0.16626 1.4670001 4279635478
-0.18658 0.16694 1.473 4280100415
-0.18377429 0.16694 1.473 4283196264
-0.49118569 0.12618573 1.095 4287137652
-0.48909998 0.12618573 1.095 4288318070
-0.49012759 0.12699237 1.102 4288581240
-0.49290004 0.12826 1.113 4288911749
-0.49078003 0.12826 1.113 4289242258
-0.48997715 0.12860572 1.1160001 4289569437
-0.49091145 0.12941237 1.123 4289965223
-0.49051338 0.12987334 1.1270001 4290359721
-0.48836669 0.12987334 1.1270001 4290688940
-0.48622003 0.12987334 1.1270001 4291018165
-0.48708001 0.13068001 1.1340001 4291019966
-0.48663047 0.13114095 1.138 4291019454
-0.48616573 0.13160191 1.1420001 4291084733
-0.48865241 0.13286953 1.153 4291150524
-0.48814383 0.13333048 1.1570001 4291216314
-0.48761997 0.13379143 1.161 4291348158
-0.48875338 0.13471334 1.169 4291283138
-0.491521 0.13609621 1.1810001 4291282883
-0.49258575 0.1370181 1.189 4291216836
-0.49197051 0.13747905 1.1930001 4291216324
-0.49133998 0.13794 1.197 4291216069
-0.49110287 0.13851619 1.202 4291282115
-0.49206671 0.13943809 1.21 4291282369
-0.49138102 0.13989906 1.2140001 4291281859
-0.49108288 0.14047524 1.2190001 4291216069
-0.48876098 0.14047524 1.2190001 4291150788
-0.48963144 0.14139715 1.2270001 4291017667
-0.4908686 0.14243428 1.2360001 4290886332
-0.4900952 0.14289525 1.24 4290427316
-0.49324003 0.14450859 1.2540001 4289968049
-0.49437431 0.14554571 1.263 4289770158
-0.49391618 0.1461219 1.268 4289637292
-0.49305147 0.14658286 1.2720001 4289306794
-0.4925572 0.14715905 1.2770001 4289045154
-0.49396285 0.14831144 1.2870001 4288912283
-0.49303901 0.14877237 1.291 4288781724
-0.49438006 0.14992478 1.3010001 4288583070
-0.49190196 0.14992478 1.3010001 4288451737
-0.49130481 0.15050097 1.3060001 4288253844
-0.49256003 0.15165333 1.3160001 4288123279
-0.49191529 0.15222953 1.3210001 4288057993
-0.49125144 0.15280573 1.3260001 4287992455
-0.49241146 0.1539581 1.3360001 4287860357
-0.49390003 0.15522572 1.3470001 4287794571
-0.49534667 0.15649334 1.358 4287663505
-0.49276 0.15649334 1.358 4287597707
-0.49378285 0.15764572 1.368 4287335558
-0.49333146 0.15833716 1.3740001 4287072392
-0.49464291 0.15960477 1.3850001 4287137673
-0.49378097 0.16018097 1.3900001 4287202951
-0.49325335 0.16087238 1.396 4287071364
-0.49446005 0.16214001 1.4070001 4287005825
-0.49178001 0.16214001 1.4070001 4286939775
-0.49327141 0.16352285 1.419 4286874242
-0.49264288 0.16421428 1.4250001 4286677637
-0.49405429 0.16559714 1.437 4286546306
-0.49336863 0.16628858 1.4430001 4286479743
-0.49266002 0.16698001 1.4490001 4286478716
-0.49395716 0.16836286 1.4610001 4286347129
-0.49117431 0.16836286 1.4610001 4286216310
-0.49674857 0.1712438 1.4860001 4286151028
-0.49591237 0.17193525 1.4920001 4286084466
-0.49538383 0.17274192 1.4990001 4285888113
-0.36517337 0.1539581 1.3360001 4284970083
-0.36262858 0.1539581 1.3360001 4285824874
-0.36008382 0.1539581 1.3360001 4286548594
-0.35914475 0.15464953 1.342 4287335793
-0.3549943 0.1539581 1.3360001 4287336816
-0.35244954 0.1539581 1.3360001 4287334758
-0.35409525 0.15580191 1.3520001 4287136093
-0.35152003 0.15580191 1.3520001 4286937168
-0.35049334 0.15649334 1.358 4285427779
-0.34790668 0.15649334 1.358 4283973418
-0.3493886 0.15833716 1.3740001 4281077265
-0.35383812 0.16156381 1.4020001 4278266385
-0.35116762 0.16156381 1.4020001 4278912017
-0.34849715 0.16156381 1.4020001 4279568669
-0.34434667 0.16087238 1.396 4279701289
-0.34168762 0.16087238 1.396 4279899436
-0.33757144 0.16018097 1.3900001 4280032047
-0.33492383 0.16018097 1.3900001 4280165941
-0.3322762 0.16018097 1.3900001 4280496700
-0.32844287 0.15960477 1.3850001 4280889647
-0.32439333 0.15891334 1.3790001 4280889635
-0.32176667 0.15891334 1.3790001 4280889124
-0.31798288 0.15833716 1.3740001 4280757797
-0.31651336 0.15891334 1.3790001 4280691486
-0.31525239 0.15960477 1.3850001 4280363288
-0.31126001 0.15891334 1.3790001 4280030997
-0.30751431 0.15833716 1.3740001 4279440658
-0.30489716 0.15833716 1.3740001 4278915598
-0.30228001 0.15833716 1.3740001 4278784521
-0.24667716 0.16490573 1.4310001 4286219124
-0.24292858 0.16421428 1.4250001 4285952622
-0.23920286 0.16352285 1.419 4285685600
-0.23650001 0.16352285 1.419 4282993747
-0.23379713 0.16352285 1.419 4280372305
-0.22832571 0.16156381 1.4020001 4280699983
-0.22645999 0.16214001 1.4070001 4281090100
-0.22473431 0.16283144 1.4130001 4281414938
-0.22204287 0.16283144 1.4130001 4281741863
-0.21842 0.16214001 1.4070001 4282263093
-0.21574001 0.16214001 1.4070001 4282852690
-0.21230286 0.16156381 1.4020001 4283869040
-0.2096324 0.16156381 1.4020001 4284853106
-0.20696191 0.16156381 1.4020001 4284526452
-0.20492859 0.16421428 1.4250001 4281273899
-0.20306572 0.16490573 1.4310001 4278389273
-0.20118 0.16559714 1.437 4278322695
-0.19927144 0.16628858 1.4430001 4278257416
-0.19734001 0.16698001 1.4490001 4278323465
-0.19538571 0.16767143 1.455 4278388741
-0.19340858 0.16836286 1.4610001 4279109377
-0.19062573 0.16836286 1.4610001 4279897357
-0.18861429 0.1690543 1.4670001 4279964442
-0.18582001 0.1690543 1.4670001 4280036159
-0.18227714 0.16836286 1.4610001 4283195237
-0.17949429 0.16836286 1.4610001 4286414442
-0.49290004 0.12710001 1.085 4287001978
-0.49219051 0.12745143 1.0880001 4287202182
-0.49327141 0.12827143 1.095 4287467907
-0.49118569 0.12827143 1.095 4288125056
-0.49044004 0.12862286 1.098 4288782206
-0.49012759 0.12909143 1.102 4289309053
-0.49112862 0.12991144 1.1090001 4289836180
-0.49078003 0.13038 1.113 4290030763
-0.48997715 0.13073143 1.1160001 4290160049
-0.4896 0.1312 1.12 4290426039
-0.48746666 0.1312 1.12 4290755254
-0.48836669 0.13202001 1.1270001 4290886325
-0.48794574 0.13248858 1.131 4291085505
-0.48708001 0.13284001 1.1340001 4291085261
-0.48663047 0.13330857 1.138 4291085255
-0.48616573 0.13377714 1.1420001 4291085505
-0.48738098 0.13471429 1.1500001 4291151296
-0.48814383 0.13553429 1.1570001 4291216575
-0.48930001 0.13647144 1.1650001 4291283140
-0.49042574 0.13740857 1.1730001 4291283146
-0.491521 0.13834573 1.1810001 4291217863
-0.49258575 0.13928285 1.189 4291282629
-0.49362001 0.14022 1.197 4291282116
-0.49339238 0.14080572 1.202 4291347652
-0.49110287 0.14080572 1.202 4291413442
-0.49044004 0.1412743 1.2060001 4291347649
-0.49138102 0.14221144 1.2140001 4291282113
-0.4890686 0.14221144 1.2140001 4291150785
-0.49036476 0.14326571 1.223 4291085250
-0.48963144 0.14373431 1.2270001 4290952900
-0.48729435 0.14373431 1.2270001 4290820794
-0.4900952 0.14525715 1.24 4290427056
-0.49127337 0.14631145 1.2490001 4290032814
-0.49280861 0.14748287 1.2590001 4289835180
-0.49391618 0.14853714 1.268 4289637545
-0.49498954 0.14959145 1.2770001 4289372838
-0.4925572 0.14959145 1.2770001 4289045153
-0.49396285 0.15076287 1.2870001 4288913053
-0.49303901 0.15123142 1.291 4288715933
-0.49438006 0.15240286 1.3010001 4288583581
-0.49190196 0.15240286 1.3010001 4288385944
-0.49130481 0.15298858 1.3060001 4288254611
-0.49256003 0.15416001 1.3160001 4288057741
-0.49191529 0.15474573 1.3210001 4287992200
-0.49125144 0.15533143 1.3260001 4287861125
-0.49241146 0.15650286 1.3360001 4287728771
-0.49206665 0.1572057 1.342 4287596941
-0.49534667 0.15908001 1.358 4287531416
-0.49457431 0.15966572 1.363 4287466131
-0.49378285 0.16025144 1.368 4287269007
-0.49512666 0.16154 1.3790001 4287137679
-0.49464291 0.16224286 1.3850001 4287137423
-0.49591237 0.16353144 1.396 4287137161
-0.49325335 0.16353144 1.396 4287071364
-0.49446005 0.16482 1.4070001 4287005825
-0.49387717 0.16552287 1.4130001 4286874751
-0.49327141 0.16622572 1.419 4286743940
-0.49264288 0.16692857 1.4250001 4286612105
-0.49405429 0.16833429 1.437 4286480260
-0.49336863 0.16903715 1.4430001 4286348415
-0.49266002 0.16974002 1.4490001 4286281596
-0.49192858 0.17044286 1.455 4286150777
-0.49520856 0.17255142 1.473 4286020212
-0.49474284 0.17337143 1.48 4285954160
-0.49391809 0.17407429 1.4860001 4285888111
-0.49538383 0.17559716 1.4990001 4285691247
-0.36771813 0.15650286 1.3360001 4286153596
-0.36517337 0.15650286 1.3360001 4286482810
-0.36262858 0.15650286 1.3360001 4286746498
-0.36008382 0.15650286 1.3360001 4286942859
-0.35914475 0.1572057 1.342 4287205005
-0.35658857 0.1572057 1.342 4287269776
-0.3540324 0.1572057 1.342 4287334542
-0.35409525 0.15837716 1.3520001 4287202956
-0.35152003 0.15837716 1.3520001 4287073412
-0.35049334 0.15908001 1.358 4286415229
-0.34790668 0.15908001 1.358 4285822792
-0.3493886 0.1609543 1.3740001 4284174611
-0.34803337 0.16154 1.3790001 4282592010
-0.34540668 0.16154 1.3790001 4280751873
-0.34700572 0.16353144 1.396 4278911761
-0.34434667 0.16353144 1.396 4279174690
-0.34021908 0.16282858 1.3900001 4279437861
-0.33635715 0.16224286 1.3850001 4279373353
-0.33492383 0.16282858 1.3900001 4279243561
-0.33108097 0.16224286 1.3850001 4279639337
-0.32701999 0.16154 1.3790001 4279969571
-0.32321715 0.1609543 1.3740001 4279968541
-0.3206 0.1609543 1.3740001 4279902242
-0.31798288 0.1609543 1.3740001 4279901735
-0.3153657 0.1609543 1.3740001 4279966753
-0.31274858 0.1609543 1.3740001 4279703580
-0.31013146 0.1609543 1.3740001 4279506199
-0.30751431 0.1609543 1.3740001 4279178003
-0.30489716 0.1609543 1.3740001 4278915342
-0.30096 0.16025144 1.368 4278849801
-0.2983543 0.16025144 1.368 4278783497
-0.2459619 0.16353144 1.396 4283592540
-0.24330285 0.16353144 1.396 4283061861
-0.24064381 0.16353144 1.396 4282531427
-0.23900762 0.1642343 1.4020001 4282465890
-0.23633714 0.1642343 1.4020001 4282400332
-0.23366667 0.1642343 1.4020001 4281282614
-0.23099619 0.1642343 1.4020001 4280099376
-0.22832571 0.1642343 1.4020001 4280231722
-0.22565526 0.1642343 1.4020001 4280298532
-0.22298478 0.1642343 1.4020001 4280365343
-0.22031429 0.1642343 1.4020001 4280432424
-0.21671239 0.16353144 1.396 4280495153
-0.21405335 0.16353144 1.396 4280557897
-0.2113943 0.16353144 1.396 4281022305
-0.2096324 0.1642343 1.4020001 4281552245
-0.20858572 0.16552287 1.4130001 4281345930
-0.20589429 0.16552287 1.4130001 4281205062
-0.20406571 0.16622572 1.419 4279960578
-0.2022143 0.16692857 1.4250001 4278781953
-0.20034 0.16763145 1.4310001 4278585601
-0.19927144 0.16903715 1.4430001 4278389257
-0.19815715 0.17044286 1.455 4278782738
-0.19538571 0.17044286 1.455 4279244041
-0.19261429 0.17044286 1.455 4279964929
-0.19062573 0.17114572 1.4610001 4280685839
-0.18784288 0.17114572 1.4610001 4280820510
-0.18506001 0.17114572 1.4610001 4281020736
-0.18227714 0.17114572 1.4610001 4283653731
-0.17949429 0.17114572 1.4610001 4286348141
-0.17671144 0.17114572 1.4610001 4286348919
-0.17464288 0.17184858 1.4670001 4286349945
-0.17184858 0.17184858 1.4670001 4286547067
0.2713286 0.17114572 1.4610001 4284043875
-0.49290004 0.12916666 1.085 4288187518
-0.49219051 0.12952381 1.0880001 4288582536
-0.49327141 0.13035715 1.095 4288976522
-0.49253145 0.13071428 1.098 4289108365
-0.49222666 0.13119048 1.102 4289307792
-0.49146193 0.13154761 1.105 4290031764
-0.49112862 0.13202383 1.1090001 4290819236
-0.49078003 0.13249999 1.113 4290818996
-0.48866001 0.13249999 1.113 4290820020
-0.48785144 0.13285714 1.1160001 4290952372
-0.49051338 0.13416667 1.1270001 4291149239
-0.49010003 0.13464285 1.131 4291149498
-0.48794574 0.13464285 1.131 4291151297
-0.48879808 0.13547619 1.138 4291150792
-0.48663047 0.13547619 1.138 4291150788
-0.48616573 0.1359524 1.1420001 4291151040
-0.48568571 0.13642856 1.146 4291216829
-0.48983142 0.13821429 1.161 4291216826
-0.48930001 0.13869049 1.1650001 4291282624
-0.49042574 0.13964286 1.1730001 4291217350
-0.491521 0.14059526 1.1810001 4291217349
-0.49092859 0.14107144 1.1850001 4291283141
-0.49197051 0.14202382 1.1930001 4291413957
-0.49339238 0.14309524 1.202 4291479492
-0.49110287 0.14309524 1.202 4291609794
-0.49044004 0.14357144 1.2060001 4291413183
-0.49138102 0.14452383 1.2140001 4291282111
-0.49108288 0.14511906 1.2190001 4291151038
-0.49036476 0.14559524 1.223 4291084991
-0.48963144 0.14607145 1.2270001 4290888129
-0.4908686 0.14714286 1.2360001 4290755258
-0.4900952 0.14761904 1.24 4290427059
-0.48969999 0.14821428 1.245 4290164401
-0.49085146 0.14928573 1.2540001 4289898671
-0.49547434 0.15142858 1.2720001 4289703083
-0.49498954 0.15202382 1.2770001 4289373608
-0.49448574 0.15261906 1.2820001 4289110435
-0.49549809 0.15369047 1.291 4288913823
-0.49303901 0.15369047 1.291 4288715422
-0.49438006 0.15488097 1.3010001 4288518557
-0.49190196 0.15488097 1.3010001 4288386966
-0.49130481 0.1554762 1.3060001 4288189840
-0.49256003 0.15666668 1.3160001 4288057741
-0.49191529 0.15726192 1.3210001 4287926410
-0.48939905 0.15726192 1.3210001 4287795080
-0.49241146 0.15904763 1.3360001 4287597447
-0.49390003 0.16035716 1.3470001 4287465869
-0.49534667 0.16166666 1.358 4287399827
-0.49638858 0.16285715 1.368 4287334544
-0.49594858 0.16357145 1.3740001 4287269005
-0.49512666 0.16416667 1.3790001 4287268492
-0.49464291 0.16488096 1.3850001 4287202698
-0.49591237 0.16619048 1.396 4287137158
-0.49325335 0.16619048 1.396 4287071874
-0.49446005 0.16750002 1.4070001 4287005567
-0.49387717 0.16821429 1.4130001 4286809212
-0.49327141 0.16892856 1.419 4286677887
-0.49264288 0.16964287 1.4250001 4286546817
-0.49199149 0.17035715 1.4310001 4286414462
-0.49131712 0.17107143 1.437 4286217084
-0.49266002 0.17250001 1.4490001 4286084986
-0.49192858 0.17321429 1.455 4285954425
-0.49319148 0.17464288 1.4670001 4285888627
-0.49240285 0.17535715 1.473 4285757294
-0.49391809 0.17690475 1.4860001 4285690475
-0.49108765 0.17690475 1.4860001 4285427561
-0.37280765 0.15904763 1.3360001 4287793792
-0.37026289 0.15904763 1.3360001 4287995792
-0.36771813 0.15904763 1.3360001 4288257163
-0.36380669 0.15845239 1.3310001 4287994245
-0.36262858 0.15904763 1.3360001 4287729799
-0.36008382 0.15904763 1.3360001 4287401098
-0.35753906 0.15904763 1.3360001 4287073932
-0.35658857 0.15976191 1.342 4287203983
-0.35535145 0.16035716 1.3470001 4287334286
-0.35409525 0.16095239 1.3520001 4287268237
-0.35152003 0.16095239 1.3520001 4287268749
-0.35049334 0.16166666 1.358 4287466126
-0.34918761 0.1622619 1.363 4287661680
-0.34659144 0.1622619 1.363 4287332946
-0.34525716 0.16285715 1.368 4286998345
-0.34540668 0.16416667 1.3790001 4282600769
-0.34551433 0.1654762 1.3900001 4278265897
-0.34286669 0.1654762 1.3900001 4278649617
-0.34021908 0.1654762 1.3900001 4279043608
-0.33635715 0.16488096 1.3850001 4278716959
-0.33371907 0.16488096 1.3850001 4278390302
-0.33108097 0.16488096 1.3850001 4278719006
-0.32701999 0.16416667 1.3790001 4279112474
-0.32321715 0.16357145 1.3740001 4279047445
-0.3206 0.16357145 1.3740001 4278981401
-0.31798288 0.16357145 1.3740001 4279111965
-0.3153657 0.16357145 1.3740001 4279242523
-0.31274858 0.16357145 1.3740001 4279111194
-0.30877715 0.16285715 1.368 4278980373
-0.30617145 0.16285715 1.368 4278980880
-0.30489716 0.16357145 1.3740001 4278980877
-0.30096 0.16285715 1.368 4278915339
-0.29726383 0.1622619 1.363 4278914572
-0.29574859 0.16285715 1.368 4278916366
-0.29314288 0.16285715 1.368 4278982160
-0.29181144 0.16357145 1.3740001 4279047955
-0.28919432 0.16357145 1.3740001 4279113231
-0.28657714 0.16357145 1.3740001 4279375115
-0.28396001 0.16357145 1.3740001 4279702286
-0.28011426 0.16285715 1.368 4279308562
-0.27750856 0.16285715 1.368 4278914317
-0.26135334 0.16416667 1.3790001 4278783496
-0.25778857 0.16357145 1.3740001 4278390042
-0.25405714 0.16285715 1.368 4278455341
-0.25145143 0.16285715 1.368 4278588466
-0.24822001 0.16416667 1.3790001 4279379254
-0.24559334 0.16416667 1.3790001 4279709237
-0.24490479 0.1654762 1.3900001 4280102201
-0.24225716 0.1654762 1.3900001 4279446589
-0.23960954 0.1654762 1.3900001 4278852410
-0.23798476 0.16619048 1.396 4278979128
-0.23532572 0.16619048 1.396 4279176753
-0.23266667 0.16619048 1.396 4279505706
-0.23000763 0.16619048 1.396 4279897894
-0.22734857 0.16619048 1.396 4279700259
-0.22468953 0.16619048 1.396 4279568665
-0.22203048 0.16619048 1.396 4279371792
-0.21937144 0.16619048 1.396 4279174680
-0.21671239 0.16619048 1.396 4278715681
-0.21405335 0.16619048 1.396 4278256681
-0.2113943 0.16619048 1.396 4278256433
-0.2096324 0.16690478 1.4020001 4278256188
-0.2077 0.16750002 1.4070001 4278255944
-0.20589429 0.16821429 1.4130001 4278256171
-0.20406571 0.16892856 1.419 4278715406
-0.2022143 0.16964287 1.4250001 4279174670
-0.19950001 0.16964287 1.4250001 4278847757
-0.19844286 0.17107143 1.437 4278520600
-0.19734001 0.17250001 1.4490001 4279307812
-0.19458002 0.17250001 1.4490001 4280161823
-0.19261429 0.17321429 1.455 4280819483
-0.19062573 0.17392859 1.4610001 4281544737
-0.18784288 0.17392859 1.4610001 4281745704
-0.18506001 0.17392859 1.4610001 4282006599
-0.18152858 0.17321429 1.455 4284178021
-0.17875715 0.17321429 1.455 4286348401
-0.17671144 0.17392859 1.4610001 4286348669
-0.17392859 0.17392859 1.4610001 4286415997
-0.17044286 0.17321429 1.455 4286612861
-0.16767143 0.17321429 1.455 4286809728
-0.16558 0.17392859 1.4610001 4287006596
-0.16279715 0.17392859 1.4610001 4287269508
0.2713286 0.17392859 1.4610001 4285097836
0.28362003 0.17464288 1.4670001 4286145892
0.28524286 0.17392859 1.4610001 4286409056
0.28802574 0.17392859 1.4610001 4286738533
-0.49426287 0.13159619 1.0880001 4288915586
-0.49354765 0.13195905 1.0910001 4289243531
-0.49327141 0.13244286 1.095 4289571730
-0.49253145 0.13280571 1.098 4289770906
-0.49222666 0.13328952 1.102 4289970083
-0.49146193 0.13365239 1.105 4290427308
-0.49112862 0.1341362 1.1090001 4290819252
-0.49078003 0.13462 1.113 4290886077
-0.48866001 0.13462 1.113 4290887607
-0.48785144 0.13498287 1.1160001 4291083954
-0.48877236 0.13582952 1.123 4291215033
-0.49010003 0.13679715 1.131 4291281600
-0.48924002 0.13716 1.1340001 4291282882
-0.48879808 0.13764381 1.138 4291348164
-0.48663047 0.13764381 1.138 4291347906
-0.48616573 0.13812762 1.1420001 4291347904
-0.48568571 0.13861144 1.146 4291348154
-0.48983142 0.14042571 1.161 4291413429
-0.49098 0.14139333 1.169 4291478715
-0.49042574 0.14187714 1.1730001 4291347650
-0.491521 0.14284478 1.1810001 4291282372
-0.49092859 0.14332858 1.1850001 4291348678
-0.49197051 0.1442962 1.1930001 4291413957
-0.49339238 0.14538477 1.202 4291413701
-0.49273717 0.14586858 1.2060001 4291413185
-0.49206671 0.14635238 1.21 4291281854
-0.49138102 0.14683619 1.2140001 4291151805
-0.49108288 0.14744097 1.2190001 4291084988
-0.49036476 0.14792477 1.223 4291084733
-0.48963144 0.14840858 1.2270001 4290888126
-0.4908686 0.14949715 1.2360001 4290755514
-0.4900952 0.14998095 1.24 4290492599
-0.48969999 0.15058571 1.245 4290295989
-0.48889431 0.15106954 1.2490001 4289833395
-0.49391618 0.15336761 1.268 4289375662
-0.49498954 0.1544562 1.2770001 4289176746
-0.49448574 0.15506096 1.2820001 4288979366
-0.49549809 0.15614952 1.291 4288781986
-0.49494854 0.15675429 1.296 4288584095
-0.49438006 0.15735906 1.3010001 4288452765
-0.49190196 0.15735906 1.3010001 4288256149
-0.49130481 0.15796383 1.3060001 4288124302
-0.49256003 0.15917335 1.3160001 4287992205
-0.49005336 0.15917335 1.3160001 4287860620
-0.48939905 0.1597781 1.3210001 4287794572
-0.49056861 0.16098763 1.3310001 4287597452
-0.49390003 0.16292287 1.3470001 4287466125
-0.49534667 0.16425334 1.358 4287334798
-0.49638858 0.16546287 1.368 4287269261
-0.49594858 0.16618858 1.3740001 4287203468
-0.49512666 0.16679335 1.3790001 4287137161
-0.49464291 0.16751906 1.3850001 4287071878
-0.49591237 0.16884953 1.396 4287006851
-0.49537337 0.16957524 1.4020001 4286940800
-0.49446005 0.17018001 1.4070001 4286874493
-0.49387717 0.17090572 1.4130001 4286743162
-0.49327141 0.17163143 1.419 4286612090
