# .PCD v0.7 - Point Cloud Data file format
VERSION 0.7
FIELDS x y z rgba
SIZE 4 4 4 4
TYPE F F F U
COUNT 1 1 1 1
WIDTH 1105
HEIGHT 1
VIEWPOINT 0 0 0 1 0 0 0
POINTS 1105
DATA ascii
-0.48190001 0.062071431 1.1850001 4285227876
-0.48126191 0.062280957 1.189 4285357925
-0.48060861 0.062490482 1.1930001 4286014822
-0.47994 0.062699996 1.197 4286737511
-0.47965524 0.062961906 1.202 4286806376
-0.47895432 0.063171431 1.2060001 4286940811
-0.47823811 0.063380957 1.21 4287534510
-0.47947338 0.063852385 1.2190001 4288193940
-0.48224005 0.064533345 1.2320001 4286807674
-0.48145145 0.064742863 1.2360001 4285426810
-0.47909716 0.064742863 1.2360001 4285361787
-0.47828573 0.064952381 1.24 4285296760
-0.4793781 0.065423816 1.2490001 4284967797
-0.47699907 0.065423816 1.2490001 4284573045
-0.47842002 0.065947622 1.2590001 4284835446
-0.47942474 0.066419043 1.268 4285098090
-0.48039526 0.066890478 1.2770001 4284900447
-0.48320284 0.067623809 1.291 4284703077
-0.48446766 0.068147629 1.3010001 4284637547
-0.48569432 0.068671428 1.3110001 4284572778
-0.48319718 0.068671428 1.3110001 4284638570
-0.48070005 0.068671428 1.3110001 4284704617
-0.48002669 0.068933338 1.3160001 4284704361
-0.48296288 0.069719046 1.3310001 4284770152
-0.48042765 0.069719046 1.3310001 4284769640
-0.48363715 0.070557147 1.3470001 4284834666
-0.48285717 0.070819058 1.3520001 4284899948
-0.48241335 0.071133338 1.358 4284965484
-0.48548001 0.071971431 1.3740001 4284834925
-0.48462 0.072233334 1.3790001 4284704108
-0.48409051 0.072547622 1.3850001 4284638315
-0.48319051 0.072809525 1.3900001 4284572523
-0.48261714 0.073123805 1.396 4284704619
-0.48202097 0.073438093 1.4020001 4284836456
-0.48106003 0.073700003 1.4070001 4284703589
-0.48245999 0.074328572 1.419 4284637541
-0.48381433 0.074957155 1.4310001 4284768613
-0.48310572 0.075271428 1.437 4284965220
-0.48036858 0.075271428 1.437 4284834403
-0.48162004 0.075900003 1.4490001 4284768865
-0.48679143 0.07715714 1.473 4284572767
-0.48825717 0.0778381 1.4860001 4284442464
-0.48967338 0.078519054 1.4990001 4284311905
-0.4868181 0.078519054 1.4990001 4284116053
-0.48396286 0.078519054 1.4990001 4283786313
-0.25718001 0.061233331 1.169 4280025347
-0.25408095 0.061023813 1.1650001 4279246350
-0.25186193 0.061023813 1.1650001 4279246105
-0.24964288 0.061023813 1.1650001 4279311633
-0.24742381 0.061023813 1.1650001 4279245578
-0.24520479 0.061023813 1.1650001 4279179529
-0.24298574 0.061023813 1.1650001 4279112968
-0.23993999 0.060814284 1.161 4279046149
-0.23772858 0.060814284 1.161 4278915074
-0.23551714 0.060814284 1.161 4278849553
-0.23109525 0.060238097 1.1500001 4279505440
-0.22890478 0.060238097 1.1500001 4280229407
-0.31033048 0.035448574 0.65300006 4289971351
-0.31003332 0.035557143 0.65500003 4290361766
-0.30972856 0.035665717 0.65700001 4289969076
-0.30847713 0.035665717 0.65700001 4289573042
-0.30909619 0.03588286 0.66100001 4289308081
-0.30830288 0.035937145 0.66200006 4289111721
-0.30750573 0.035991434 0.66300005 4289177761
-0.3071667 0.036100004 0.66500002 4289240987
-0.30590001 0.036100004 0.66500002 4287993493
-0.30509144 0.036154289 0.66600001 4286812054
-0.30382288 0.036154289 0.66600001 4286482840
-0.48336002 0.057759997 1.064 4286150286
-0.48133332 0.057759997 1.064 4285555844
-0.48876667 0.058900002 1.085 4285033089
-0.4867 0.058900002 1.085 4285100158
-0.48597336 0.059062857 1.0880001 4285230715
-0.48390099 0.059062857 1.0880001 4285492600
-0.48315716 0.059225716 1.0910001 4285754743
-0.48107907 0.059225716 1.0910001 4285821301
-0.48075715 0.059442859 1.095 4285886836
-0.48173141 0.059822857 1.102 4285690483
-0.4826791 0.060202863 1.1090001 4285558900
-0.48230001 0.060420003 1.113 4285296501
-0.48147431 0.060582861 1.1160001 4285034613
-0.48235527 0.06096286 1.123 4285231990
-0.48021621 0.06096286 1.123 4285428337
-0.47978005 0.061180007 1.1270001 4285361773
-0.47932857 0.061397146 1.131 4285295986
-0.47844002 0.061560001 1.1340001 4285361528
-0.47964004 0.061994288 1.1420001 4285427065
-0.47913715 0.062211428 1.146 4285558651
-0.4786191 0.062428575 1.1500001 4285689461
-0.47932857 0.062808573 1.1570001 4285295984
-0.47877428 0.063025713 1.161 4284967531
-0.47984669 0.06346 1.169 4284966758
-0.48088858 0.063894287 1.177 4285031015
-0.48027337 0.064111434 1.1810001 4285422953
-0.47802386 0.064111434 1.1810001 4285885820
-0.48060861 0.064762861 1.1930001 4287266191
-0.47833622 0.064762861 1.1930001 4288649616
-0.47965524 0.065251425 1.202 4288788114
-0.47736573 0.065251425 1.202 4288985500
-0.47665718 0.065468572 1.2060001 4288658854
-0.48104668 0.066391431 1.223 4288386189
-0.48224005 0.066880003 1.2320001 4286872437
-0.47989336 0.066880003 1.2320001 4285429623
-0.48064759 0.067314282 1.24 4285428601
-0.4802143 0.067585714 1.245 4285492598
-0.47784287 0.067585714 1.245 4285229940
-0.4789086 0.068074286 1.2540001 4284966260
-0.47842002 0.068345711 1.2590001 4285032053
-0.47602192 0.068345711 1.2590001 4285097323
-0.4822762 0.069594286 1.2820001 4284965985
-0.48320284 0.070082851 1.291 4284900197
-0.48446766 0.070625715 1.3010001 4284768874
-0.48384196 0.070897147 1.3060001 4284704105
-0.48135433 0.070897147 1.3060001 4284704360
-0.48070005 0.071168572 1.3110001 4284704106
-0.48002669 0.071440004 1.3160001 4284835180
-0.48296288 0.072254293 1.3310001 4285031529
-0.48042765 0.072254293 1.3310001 4284965990
-0.48184189 0.072851434 1.342 4284900200
-0.48285717 0.073394291 1.3520001 4284965482
-0.48241335 0.073720008 1.358 4285096554
-0.48336002 0.074262857 1.368 4284900203
-0.48462 0.074860007 1.3790001 4284769130
-0.48409051 0.075185724 1.3850001 4284834666
-0.48319051 0.075457148 1.3900001 4284900201
-0.48469144 0.076108575 1.4020001 4284770409
-0.48202097 0.076108575 1.4020001 4284704616
-0.48106003 0.076380007 1.4070001 4284637544
-0.47837999 0.076380007 1.4070001 4284572010
-0.48381433 0.077682868 1.4310001 4284637804
-0.48310572 0.078008577 1.437 4284768616
-0.48036858 0.078008577 1.437 4284703844
-0.47763142 0.078008577 1.437 4284703579
-0.49108765 0.080668576 1.4860001 4284441937
-0.49022862 0.080994293 1.4920001 4284177238
-0.4873867 0.080994293 1.4920001 4283912538
-0.4868181 0.081374288 1.4990001 4283647308
-0.25718001 0.06346 1.169 4279763464
-0.25495335 0.06346 1.169 4278984464
-0.25186193 0.06324286 1.1650001 4279115544
-0.24964288 0.06324286 1.1650001 4279311634
-0.24742381 0.06324286 1.1650001 4279245580
-0.24520479 0.06324286 1.1650001 4279179275
-0.24298574 0.06324286 1.1650001 4279047691
-0.23993999 0.063025713 1.161 4278980105
-0.23772858 0.063025713 1.161 4279045128
-0.23632859 0.06324286 1.1650001 4279111444
-0.23109525 0.062428575 1.1500001 4279701792
-0.22890478 0.062428575 1.1500001 4280360479
-0.30985522 0.036636192 0.65200001 4289249722
-0.30908668 0.036692385 0.65300006 4289902524
-0.30925715 0.036860954 0.65600002 4289311167
-0.30988571 0.037085716 0.66000003 4288716985
-0.30862859 0.037085716 0.66000003 4288259507
-0.30830288 0.037198097 0.66200006 4287867809
-0.30750573 0.037254289 0.66300005 4287470736
-0.30762857 0.037422854 0.66600001 4287139464
-0.30636001 0.037422854 0.66600001 4286810240
-0.30509144 0.037422854 0.66600001 4286481280
-0.30382288 0.037422854 0.66600001 4286218113
-0.48336002 0.059786666 1.064 4285950585
-0.47997621 0.059618101 1.0610001 4285557874
-0.48561338 0.060573336 1.0780001 4285165168
-0.48490575 0.060741913 1.0810001 4285296495
-0.48463336 0.060966667 1.085 4285427059
-0.48390099 0.06113524 1.0880001 4285558135
-0.48182857 0.06113524 1.0880001 4285755000
-0.48107907 0.061303813 1.0910001 4285886073
-0.47900099 0.061303813 1.0910001 4286016630
-0.47998288 0.061697148 1.098 4285755252
-0.4826791 0.062315244 1.1090001 4285558900
-0.48230001 0.062540002 1.113 4285427829
-0.48147431 0.062708572 1.1160001 4285297013
-0.48106664 0.062933333 1.12 4285362806
-0.48021621 0.06310191 1.123 4285494127
-0.47978005 0.063326672 1.1270001 4285361513
-0.47932857 0.063551433 1.131 4285164401
-0.47844002 0.063720003 1.1340001 4285230202
-0.47795999 0.063944757 1.138 4285361532
-0.4774648 0.064169526 1.1420001 4285426302
-0.4786191 0.064619049 1.1500001 4285556854
-0.47767141 0.064787619 1.153 4286080879
-0.47877428 0.065237142 1.161 4286605169
-0.47984669 0.065686665 1.169 4287001203
-0.48088858 0.066136189 1.177 4287397233
-0.47864667 0.066136189 1.177 4287598703
-0.48288098 0.067035235 1.1930001 4287800468
-0.48222002 0.067259997 1.197 4288263097
-0.47994 0.067259997 1.197 4288791482
-0.47965524 0.067540951 1.202 4288135612
-0.48054287 0.067990474 1.21 4287479725
-0.48179528 0.068496197 1.2190001 4287209886
-0.48104668 0.068720959 1.223 4286940295
-0.4802829 0.068945721 1.2270001 4286216817
-0.48145145 0.069451429 1.2360001 4285495668
-0.48064759 0.069676191 1.24 4285427576
-0.4802143 0.069957145 1.245 4285361013
-0.4793781 0.070181906 1.2490001 4285163891
-0.4789086 0.07046286 1.2540001 4284966260
-0.47652003 0.07046286 1.2540001 4284966261
-0.47602192 0.070743814 1.2590001 4284966252
-0.4822762 0.072036192 1.2820001 4284835428
-0.48170573 0.072317146 1.2870001 4284770406
-0.4807438 0.0725419 1.291 4284704617
-0.48013714 0.072822854 1.296 4284638823
-0.48135433 0.073384769 1.3060001 4284638566
-0.48070005 0.073665723 1.3110001 4284703594
-0.48002669 0.07394667 1.3160001 4284769135
-0.48296288 0.074789532 1.3310001 4284899690
-0.48042765 0.074789532 1.3310001 4284834661
-0.48184189 0.075407617 1.342 4284834663
-0.48285717 0.075969525 1.3520001 4284834409
-0.48241335 0.076306671 1.358 4284899945
-0.48548001 0.077205718 1.3740001 4284769129
-0.48462 0.077486672 1.3790001 4284703849
-0.48409051 0.07782381 1.3850001 4284769129
-0.48319051 0.078104772 1.3900001 4284834664
-0.48469144 0.078779049 1.4020001 4284703591
-0.48374003 0.079060003 1.4070001 4284638313
-0.48311144 0.079397149 1.4130001 4284506987
-0.48654002 0.080408581 1.4310001 4284441199
-0.48381433 0.080408581 1.4310001 4284375667
-0.48512289 0.081082858 1.4430001 4284375660
-0.48237431 0.081082858 1.4430001 4284244582
-0.49823904 0.084229521 1.4990001 4284179285
-0.49538383 0.084229521 1.4990001 4283652420
-0.25718001 0.065686665 1.169 4280618254
-0.25408095 0.065461911 1.1650001 4279116050
-0.25186193 0.065461911 1.1650001 4279311895
-0.24964288 0.065461911 1.1650001 4279442706
-0.24742381 0.065461911 1.1650001 4279310606
-0.24520479 0.065461911 1.1650001 4279244558
-0.24298574 0.065461911 1.1650001 4279046415
-0.24076669 0.065461911 1.1650001 4278848782
-0.23854764 0.065461911 1.1650001 4278914318
-0.23632859 0.065461911 1.1650001 4279045911
-0.23410954 0.065461911 1.1650001 4279767584
-0.22890478 0.064619049 1.1500001 4280491552
-0.30985522 0.037878092 0.65200001 4288528309
-0.31003332 0.038052384 0.65500003 4289442736
-0.30925715 0.03811048 0.65600002 4288653228
-0.30988571 0.03834286 0.66000003 4287929254
-0.30909619 0.038400952 0.66100001 4287271072
-0.30830288 0.038459051 0.66200006 4286611862
-0.30704194 0.038459051 0.66200006 4285821837
-0.30762857 0.038691428 0.66600001 4285101449
-0.30682003 0.038749527 0.66700006 4285626501
-0.30554953 0.038749527 0.66700006 4286150530
-0.30382288 0.038691428 0.66600001 4285953663
-0.48336002 0.061813332 1.064 4285822074
-0.47997621 0.061639056 1.0610001 4285559668
-0.48110861 0.062045716 1.0680001 4285362290
-0.48176572 0.062394284 1.074 4285493615
-0.48284671 0.062800951 1.0810001 4285689967
-0.48256665 0.063033335 1.085 4285689967
-0.48182857 0.063207619 1.0880001 4285755251
-0.48107907 0.063381903 1.0910001 4285951864
-0.47900099 0.063381903 1.0910001 4286148215
-0.47998288 0.063788578 1.098 4285886071
-0.48093811 0.064195238 1.105 4285624180
-0.48056668 0.064427622 1.1090001 4285559409
-0.48147431 0.064834289 1.1160001 4285559412
-0.48235527 0.065240949 1.123 4285559415
-0.48021621 0.065240949 1.123 4285624177
-0.47978005 0.06547334 1.1270001 4285361515
-0.47932857 0.065705717 1.131 4285098353
-0.47844002 0.065880001 1.1340001 4285162616
-0.47795999 0.066112377 1.138 4285293434
-0.4774648 0.06634476 1.1420001 4285358972
-0.47695428 0.066577144 1.146 4285426816
-0.47767141 0.066983812 1.153 4286805636
-0.48042384 0.067680955 1.1650001 4288253315
-0.47984669 0.067913331 1.169 4289045891
-0.47925431 0.068145722 1.1730001 4289832838
-0.47864667 0.068378098 1.177 4289767818
-0.47964287 0.068842858 1.1850001 4289766294
-0.48222002 0.069539994 1.197 4289311393
-0.48194477 0.069830477 1.202 4288914848
-0.47965524 0.069830477 1.202 4287469728
-0.48054287 0.070295244 1.21 4286024340
-0.48179528 0.070818104 1.2190001 4285758857
-0.48104668 0.07105048 1.223 4285561726
-0.47871715 0.07105048 1.223 4285561203
-0.48145145 0.071805716 1.2360001 4285625459
-0.48064759 0.072038092 1.24 4285426547
-0.48175716 0.072560951 1.2490001 4285229938
-0.48129717 0.072851434 1.2540001 4285098096
-0.4789086 0.072851434 1.2540001 4284966259
-0.47652003 0.072851434 1.2540001 4284900727
-0.47602192 0.07314191 1.2590001 4284835184
-0.4822762 0.074478097 1.2820001 4284770153
-0.48320284 0.075000949 1.291 4284704360
-0.4807438 0.075000949 1.291 4284638567
-0.48198956 0.075581908 1.3010001 4284638566
-0.47951147 0.075581908 1.3010001 4284638565
-0.47886673 0.075872391 1.3060001 4284703591
-0.47820288 0.076162867 1.3110001 4284703593
-0.48296288 0.077324763 1.3310001 4284769126
-0.48042765 0.077324763 1.3310001 4284769124
-0.48184189 0.077963807 1.342 4284769127
-0.48285717 0.078544766 1.3520001 4284769131
-0.48418954 0.079183817 1.363 4284768874
-0.48336002 0.079474285 1.368 4284703593
-0.48462 0.080113336 1.3790001 4284637802
-0.48199335 0.080113336 1.3790001 4284703083
-0.48145244 0.080461912 1.3850001 4284769129
-0.48469144 0.081449524 1.4020001 4284638310
-0.48374003 0.081739999 1.4070001 4284572776
-0.48311144 0.082088582 1.4130001 4284441963
-0.48858002 0.083482862 1.437 4284376165
-0.48584285 0.083482862 1.437 4284179551
-0.48310572 0.083482862 1.437 4283980894
-0.49674857 0.086329527 1.4860001 4283781212
-0.49823904 0.087084763 1.4990001 4283646532
-0.49538383 0.087084763 1.4990001 4282856748
-0.25408095 0.067680955 1.1650001 4279311127
-0.25186193 0.067680955 1.1650001 4279442716
-0.24964288 0.067680955 1.1650001 4279638805
-0.24742381 0.067680955 1.1650001 4279441422
-0.24520479 0.067680955 1.1650001 4279308815
-0.24298574 0.067680955 1.1650001 4279045393
-0.24076669 0.067680955 1.1650001 4278783247
-0.23854764 0.067680955 1.1650001 4278849037
-0.23632859 0.067680955 1.1650001 4278979862
-0.23410954 0.067680955 1.1650001 4279768095
-0.30985522 0.03912 0.65200001 4286946224
-0.31003332 0.039300002 0.65500003 4287863204
-0.30972856 0.039419997 0.65700001 4287401369
-0.31035525 0.039659999 0.66100001 4286939795
-0.30909619 0.039659999 0.66100001 4286675598
-0.30783713 0.039659999 0.66100001 4286411404
-0.3065781 0.039659999 0.66100001 4285953162
-0.48269051 0.062700003 1.0450001 4285560714
-0.48208004 0.062880009 1.0480001 4285822603
-0.30554953 0.040020004 0.66700006 4286150276
-0.48128098 0.063300006 1.0550001 4285953150
-0.48063433 0.063480005 1.0580001 4285821306
-0.4786191 0.063480005 1.0580001 4285494135
-0.47795528 0.063660011 1.0610001 4285231219
-0.47907433 0.06408 1.0680001 4285362288
-0.48284671 0.064860001 1.0810001 4285558892
-0.48078766 0.064860001 1.0810001 4285558888
-0.48050001 0.065099999 1.085 4285624687
-0.47975621 0.065280005 1.0880001 4285493623
-0.47768381 0.065280005 1.0880001 4285428089
-0.47561145 0.065280005 1.0880001 4285362043
-0.4826791 0.066540003 1.1090001 4285230708
-0.48230001 0.066780001 1.113 4285231214
-0.4844943 0.067379996 1.123 4285231731
-0.48235527 0.067379996 1.123 4285427064
-0.48021621 0.067379996 1.123 4285688178
-0.47978005 0.067620009 1.1270001 4285820269
-0.47932857 0.067860007 1.131 4286015601
-0.47844002 0.068039998 1.1340001 4286541686
-0.47795999 0.068279997 1.138 4287133304
-0.4774648 0.068520002 1.1420001 4287531131
-0.47695428 0.06876 1.146 4287929226
-0.4809857 0.069660001 1.161 4288392346
-0.48042384 0.069900006 1.1650001 4288855702
-0.47984669 0.070140004 1.169 4288456083
-0.47925431 0.07038001 1.1730001 4288067996
-0.47864667 0.07062 1.177 4287934118
-0.47964287 0.071100004 1.1850001 4287800216
-0.48060861 0.07158 1.1930001 4287401610
-0.48194477 0.072119996 1.202 4287064967
-0.47965524 0.072119996 1.202 4286476676
-0.47895432 0.072360002 1.2060001 4285953916
-0.47981909 0.072840005 1.2140001 4285823092
-0.47947338 0.073140003 1.2190001 4285692277
-0.47871715 0.073380001 1.223 4285625974
-0.48145145 0.074160002 1.2360001 4285558642
-0.4825857 0.074699998 1.245 4285361519
-0.48368573 0.075240009 1.2540001 4285230190
-0.4832162 0.075539999 1.2590001 4285098350
-0.48081812 0.075539999 1.2590001 4284966515
-0.47994 0.075779997 1.263 4284835449
-0.47942474 0.076080002 1.268 4284704371
-0.48039526 0.076620005 1.2770001 4284573038
-0.48170573 0.07722 1.2870001 4284507498
-0.4807438 0.077459998 1.291 4284507238
-0.48198956 0.078060001 1.3010001 4284507237
-0.47951147 0.078060001 1.3010001 4284507493
-0.47886673 0.078360006 1.3060001 4284506468
-0.48002669 0.078960001 1.3160001 4284572516
-0.4811486 0.079560012 1.3260001 4284638307
-0.48042765 0.079860002 1.3310001 4284703843
-0.48184189 0.080519997 1.342 4284769384
-0.48285717 0.081120007 1.3520001 4284703598
-0.48241335 0.081479996 1.358 4284637803
-0.48336002 0.082080007 1.368 4284572265
-0.48462 0.082740009 1.3790001 4284506731
-0.48409051 0.083100006 1.3850001 4284506734
-0.48145244 0.083100006 1.3850001 4284572522
-0.4805429 0.083400004 1.3900001 4284441446
-0.47995812 0.083760001 1.396 4284309608
-0.48516288 0.085140005 1.419 4284113771
-0.49061999 0.086580001 1.4430001 4283983451
-0.48990002 0.086940005 1.4490001 4283457100
-0.49117431 0.087660007 1.4610001 4282930767
-0.49674857 0.089160003 1.4860001 4283123539
-0.49391809 0.089160003 1.4860001 4283315764
-0.49538383 0.089940004 1.4990001 4282923797
-0.25495335 0.070140004 1.169 4279310875
-0.25272667 0.070140004 1.169 4279507490
-0.25049999 0.070140004 1.169 4279769624
-0.24742381 0.069900006 1.1650001 4279506702
-0.24520479 0.069900006 1.1650001 4279241744
-0.24215142 0.069660001 1.161 4279045139
-0.24076669 0.069900006 1.1650001 4278849039
-0.23854764 0.069900006 1.1650001 4278914316
-0.23632859 0.069900006 1.1650001 4279045141
-0.30972856 0.040671431 0.65700001 4286084489
-0.31035525 0.040919047 0.66100001 4285954953
-0.30909619 0.040919047 0.66100001 4286086537
-0.30783713 0.040919047 0.66100001 4286217352
-0.48468098 0.064690478 1.0450001 4286086023
-0.48269051 0.064690478 1.0450001 4286020230
-0.48208004 0.064876191 1.0480001 4286085765
-0.48191622 0.065123811 1.052 4286150528
-0.48128098 0.065309525 1.0550001 4285952891
-0.48063433 0.065495245 1.0580001 4285821817
-0.4786191 0.065495245 1.0580001 4285428599
-0.47795528 0.065680958 1.0610001 4285101173
-0.47728002 0.065866672 1.064 4285298036
-0.47972 0.06648571 1.074 4285493618
-0.48078766 0.066919051 1.0810001 4285493361
-0.48050001 0.067166664 1.085 4285493366
-0.47843334 0.067166664 1.085 4285100668
-0.47768381 0.067352384 1.0880001 4284772731
-0.47867143 0.067785718 1.095 4284838267
-0.47963238 0.068219043 1.102 4284902518
-0.48056668 0.068652384 1.1090001 4284902002
-0.48018003 0.068900004 1.113 4284966773
-0.48106664 0.069333337 1.12 4285359223
-0.48021621 0.06951905 1.123 4285753465
-0.47978005 0.06976667 1.1270001 4286344571
-0.47763336 0.06976667 1.1270001 4286937994
-0.47717431 0.070014283 1.131 4287990425
-0.47795999 0.070447616 1.138 4289045914
-0.47579238 0.070447616 1.138 4289708186
-0.47986761 0.07137619 1.153 4290428312
-0.4809857 0.07187143 1.161 4289903255
-0.48042384 0.07211905 1.1650001 4289441685
-0.47984669 0.07236667 1.169 4287866260
-0.48088858 0.07286191 1.177 4286286481
-0.48027337 0.07310953 1.1810001 4286082958
-0.47964287 0.073357143 1.1850001 4285887623
-0.48060861 0.073852383 1.1930001 4285561473
-0.48194477 0.07440953 1.202 4285233281
-0.47965524 0.07440953 1.202 4285560450
-0.47895432 0.07465715 1.2060001 4285887870
-0.47823811 0.074904762 1.21 4285822330
-0.47947338 0.075461909 1.2190001 4285822072
-0.47715145 0.075461909 1.2190001 4285690998
-0.48145145 0.076514289 1.2360001 4285558642
-0.4825857 0.077071428 1.245 4285362286
-0.48368573 0.077628575 1.2540001 4285230189
-0.4832162 0.077938102 1.2590001 4285098860
-0.48081812 0.077938102 1.2590001 4284966511
-0.47994 0.078185715 1.263 4284770419
-0.48093718 0.078742862 1.2720001 4284638318
-0.4822762 0.079361908 1.2820001 4284441194
-0.48170573 0.079671435 1.2870001 4284310120
-0.4826057 0.080228567 1.296 4284310374
-0.48198956 0.080538101 1.3010001 4284375911
-0.47951147 0.080538101 1.3010001 4284310889
-0.47886673 0.080847628 1.3060001 4284309863
-0.48002669 0.081466675 1.3160001 4284375909
-0.4811486 0.082085714 1.3260001 4284506980
-0.48042765 0.082395241 1.3310001 4284638307
-0.48184189 0.083076194 1.342 4284834917
-0.48285717 0.08369524 1.3520001 4284704103
-0.48418954 0.084376194 1.363 4284572261
-0.48336002 0.084685713 1.368 4284506724
-0.48462 0.085366666 1.3790001 4284441444
-0.48409051 0.0857381 1.3850001 4284376932
-0.48319051 0.086047627 1.3900001 4284376417
-0.48261714 0.086419053 1.396 4284179037
-0.48202097 0.08679048 1.4020001 4284045151
-0.48516288 0.087842859 1.419 4283780193
-0.49061999 0.08932858 1.4430001 4283581262
-0.48990002 0.089700006 1.4490001 4282727227
-0.49117431 0.090442859 1.4610001 4281875526
-0.49240285 0.091185719 1.473 4282400337
-0.49391809 0.091990478 1.4860001 4282991169
-0.49538383 0.092795245 1.4990001 4282992433
-0.25495335 0.07236667 1.169 4279310874
-0.25272667 0.07236667 1.169 4279573283
-0.25049999 0.07236667 1.169 4279900695
-0.24742381 0.07211905 1.1650001 4279572236
-0.24520479 0.07211905 1.1650001 4279243022
-0.24215142 0.07187143 1.161 4279045136
-0.24076669 0.07211905 1.1650001 4278913548
-0.23854764 0.07211905 1.1650001 4278978824
-0.23632859 0.07211905 1.1650001 4279110421
-0.31114286 0.042114288 0.66000003 4286347642
-0.31035525 0.042178098 0.66100001 4286085759
-0.30956382 0.042241909 0.66200006 4286086021
-0.30783713 0.042178098 0.66100001 4286085764
-0.48328957 0.066489525 1.0420001 4286020228
-0.48269051 0.06668096 1.0450001 4285954690
-0.48070005 0.06668096 1.0450001 4286020224
-0.48008385 0.066872381 1.0480001 4286085244
-0.4799124 0.067127623 1.052 4285953657
-0.47927147 0.06731905 1.0550001 4285822328
-0.47726193 0.06731905 1.0550001 4285494903
-0.47660387 0.067510486 1.0580001 4285233015
-0.47593433 0.067701906 1.0610001 4285363064
-0.47525331 0.067893334 1.064 4285559417
-0.47767431 0.068531431 1.074 4285427834
-0.47872859 0.068978101 1.0810001 4285296509
-0.47843334 0.069233336 1.085 4285034625
-0.47768381 0.069424763 1.0880001 4284838270
-0.47867143 0.069871433 1.095 4285625211
-0.48093811 0.070509523 1.105 4286344057
-0.48056668 0.070764773 1.1090001 4286540663
-0.48018003 0.07102 1.113 4286802807
-0.48106664 0.071466669 1.12 4287398263
-0.47893333 0.071466669 1.12 4288059520
-0.47807714 0.071658097 1.123 4288061834
-0.47763336 0.071913332 1.1270001 4288064163
-0.47717431 0.072168574 1.131 4288321725
-0.47795999 0.072615236 1.138 4288596411
-0.4774648 0.072870485 1.1420001 4288396218
-0.4786191 0.073380955 1.1500001 4288196007
-0.4809857 0.074082859 1.161 4287861908
-0.48042384 0.074338101 1.1650001 4287528084
-0.47984669 0.074593335 1.169 4286802581
-0.47925431 0.074848577 1.1730001 4286142598
-0.48027337 0.075359054 1.1810001 4286083959
-0.48126191 0.075869523 1.189 4285953399
-0.48222002 0.076380007 1.197 4285757304
-0.48194477 0.076699048 1.202 4285560444
-0.48125145 0.076954298 1.2060001 4285691265
-0.47895432 0.076954298 1.2060001 4285821824
-0.47823811 0.077209525 1.21 4285756032
-0.4775067 0.077464767 1.2140001 4285755771
-0.47715145 0.077783816 1.2190001 4285624439
-0.48145145 0.078868575 1.2360001 4285493362
-0.48413619 0.079698101 1.2490001 4285361773
-0.48368573 0.080017149 1.2540001 4285295724
-0.4832162 0.080336191 1.2590001 4285098347
-0.48234573 0.080591433 1.263 4284966764
-0.47994 0.080591433 1.263 4284835181
-0.48282763 0.081484765 1.2770001 4284703594
-0.48415715 0.082122862 1.2870001 4284506983
-0.48320284 0.082378097 1.291 4284375911
-0.4826057 0.082697146 1.296 4284375911
-0.48198956 0.083016194 1.3010001 4284441450
-0.48135433 0.083335243 1.3060001 4284441197
-0.48070005 0.083654292 1.3110001 4284375401
-0.48002669 0.083973333 1.3160001 4284441190
-0.4811486 0.084611431 1.3260001 4284506980
-0.47862288 0.084611431 1.3260001 4284769379
-0.47968763 0.085249528 1.3360001 4285031522
-0.48285717 0.086270481 1.3520001 4284703585
-0.48418954 0.086972378 1.363 4284375648
-0.48336002 0.087291434 1.368 4284244831
-0.48462 0.087993339 1.3790001 4284114269
-0.48409051 0.088376194 1.3850001 4283852379
-0.48319051 0.088695243 1.3900001 4283524952
-0.48261714 0.089078099 1.396 4283650901
-0.48202097 0.089460954 1.4020001 4283779158
-0.4872143 0.090928577 1.4250001 4283648600
-0.49266002 0.092460006 1.4490001 4283448385
-0.49192858 0.092842855 1.455 4283317290
-0.49319148 0.093608581 1.4670001 4283120701
-0.49240285 0.093991429 1.473 4283779152
-0.49391809 0.094820954 1.4860001 4284503374
-0.49538383 0.095650479 1.4990001 4284703565
-0.25495335 0.074593335 1.169 4280097305
-0.25272667 0.074593335 1.169 4279966756
-0.25049999 0.074593335 1.169 4279901719
-0.24742381 0.074338101 1.1650001 4279507467
-0.24520479 0.074338101 1.1650001 4279178764
-0.24215142 0.074082859 1.161 4278979854
-0.24076669 0.074338101 1.1650001 4278848009
-0.23854764 0.074338101 1.1650001 4278979076
-0.23632859 0.074338101 1.1650001 4279110165
-0.31097999 0.043174285 0.65700001 4286937729
-0.31020001 0.043240003 0.65800005 4286610812
-0.31035525 0.043437142 0.66100001 4286283135
-0.30956382 0.043502863 0.66200006 4286152066
-0.30783713 0.043437142 0.66100001 4286020737
-0.48328957 0.068474285 1.0420001 4285955201
-0.48269051 0.068671428 1.0450001 4285954688
-0.48070005 0.068671428 1.0450001 4285954943
-0.48008385 0.068868577 1.0480001 4286020220
-0.4799124 0.069131434 1.052 4285889144
-0.47927147 0.069328576 1.0550001 4285822325
-0.47726193 0.069328576 1.0550001 4285624434
-0.47660387 0.069525719 1.0580001 4285428084
-0.47593433 0.069722861 1.0610001 4285493877
-0.47704002 0.070182867 1.0680001 4285623927
-0.47767431 0.070577145 1.074 4285360761
-0.47872859 0.071037143 1.0810001 4285098364
-0.47975621 0.07149715 1.0880001 4285032575
-0.47900099 0.071694292 1.0910001 4284968578
-0.47998288 0.072154284 1.098 4286412165
-0.48093811 0.07261429 1.105 4287856011
-0.47883332 0.07261429 1.105 4288251537
-0.48018003 0.073140003 1.113 4288650645
-0.4793486 0.073337145 1.1160001 4289508761
-0.47893333 0.073600002 1.12 4290425999
-0.47807714 0.073797144 1.123 4289770373
-0.47763336 0.074060008 1.1270001 4289178776
-0.47717431 0.074322857 1.131 4288652971
-0.47628 0.074519999 1.1340001 4288188834
-0.47412002 0.074519999 1.1340001 4287069338
-0.47695428 0.075308576 1.146 4286017936
-0.4809857 0.076294288 1.161 4285818758
-0.48042384 0.076557145 1.1650001 4285623176
-0.47984669 0.076820001 1.169 4285821066
-0.47925431 0.077082857 1.1730001 4286083963
-0.47864667 0.077345721 1.177 4286084973
-0.48126191 0.078134283 1.189 4286084471
-0.48222002 0.078660004 1.197 4286019968
-0.48194477 0.078988574 1.202 4285953152
-0.48125145 0.079251431 1.2060001 4285887617
-0.48054287 0.079514287 1.21 4285821568
-0.47823811 0.079514287 1.21 4285756032
-0.47947338 0.080105722 1.2190001 4285689723
-0.47871715 0.080368571 1.223 4285558390
-0.48145145 0.081222862 1.2360001 4285492850
-0.48413619 0.082077146 1.2490001 4285427055
-0.4856143 0.082734287 1.2590001 4285360749
-0.48475143 0.082997143 1.263 4285163627
-0.48234573 0.082997143 1.263 4284966506
-0.48184001 0.083325714 1.268 4284834920
-0.48282763 0.083917148 1.2770001 4284769380
-0.4822762 0.084245719 1.2820001 4284573023
-0.48170573 0.08457429 1.2870001 4284441698
-0.4807438 0.084837146 1.291 4284506981
-0.48198956 0.085494287 1.3010001 4284572263
-0.47951147 0.085494287 1.3010001 4284506730
-0.48070005 0.086151436 1.3110001 4284506727
-0.48002669 0.086480007 1.3160001 4284506725
-0.4811486 0.087137148 1.3260001 4284572513
-0.48042765 0.087465718 1.3310001 4284900446
-0.48184189 0.088188574 1.342 4285228125
-0.48285717 0.088845722 1.3520001 4284703580
-0.48596573 0.089897141 1.368 4284244058
-0.48548001 0.090291433 1.3740001 4284046936
-0.48848575 0.091342859 1.3900001 4283848281
-0.48793527 0.091737144 1.396 4283256665
-0.48736191 0.092131436 1.4020001 4282730831
-0.48469144 0.092131436 1.4020001 4283122757
-0.48374003 0.092460006 1.4070001 4283582031
-0.4872143 0.093642861 1.4250001 4283451737
-0.49266002 0.095220007 1.4490001 4283388239
-0.48990002 0.095220007 1.4490001 4283914566
-0.49319148 0.096402861 1.4670001 4284440149
-0.49240285 0.096797146 1.473 4285227876
-0.49591237 0.098045722 1.4920001 4286017126
-0.49538383 0.09850572 1.4990001 4286413160
-0.25495335 0.076820001 1.169 4280886299
-0.25272667 0.076820001 1.169 4280426527
-0.25049999 0.076820001 1.169 4279967510
-0.24742381 0.076557145 1.1650001 4279508238
-0.24520479 0.076557145 1.1650001 4279112718
-0.24215142 0.076294288 1.161 4278980366
-0.24076669 0.076557145 1.1650001 4278849033
-0.23854764 0.076557145 1.1650001 4278980101
-0.23632859 0.076557145 1.1650001 4279110674
-0.23410954 0.076557145 1.1650001 4279831072
-0.23268667 0.076820001 1.169 4280618784
-0.23046 0.076820001 1.169 4281353247
-0.22823334 0.076820001 1.169 4282139698
-0.31097999 0.044425715 0.65700001 4286806917
-0.31020001 0.044493336 0.65800005 4286479487
-0.31082478 0.044763811 0.66200006 4286151551
-0.30956382 0.044763811 0.66200006 4285955199
-0.30783713 0.044696189 0.66100001 4285824639
-0.48468098 0.07066191 1.0450001 4285823615
-0.48269051 0.07066191 1.0450001 4285888895
-0.48070005 0.07066191 1.0450001 4285888895
-0.48008385 0.070864767 1.0480001 4285889147
-0.4799124 0.071135238 1.052 4285626488
-0.47927147 0.071338102 1.0550001 4285363827
-0.47726193 0.071338102 1.0550001 4285296494
-0.47660387 0.071540952 1.0580001 4285231728
-0.47593433 0.071743816 1.0610001 4285428083
-0.47525331 0.071946666 1.064 4285622645
-0.47945336 0.072893336 1.0780001 4286147192
-0.47872859 0.073096193 1.0810001 4286671995
-0.47975621 0.073569521 1.0880001 4287134334
-0.47900099 0.073772386 1.0910001 4287662214
-0.47998288 0.074245714 1.098 4288320655
-0.48093811 0.074719049 1.105 4288979101
-0.47753334 0.074516185 1.102 4288713388
-0.47845432 0.074989527 1.1090001 4288462259
-0.4793486 0.075462863 1.1160001 4288198843
-0.47893333 0.075733326 1.12 4288000925
-0.47807714 0.075936191 1.123 4287668608
-0.47763336 0.076206669 1.1270001 4287336589
-0.47717431 0.076477148 1.131 4287135386
-0.47628 0.076680005 1.1340001 4286999946
-0.47579238 0.076950483 1.138 4286541178
-0.47695428 0.077491432 1.146 4286148217
-0.4809857 0.07850571 1.161 4286017400
-0.48042384 0.078776196 1.1650001 4285886843
-0.47984669 0.079046667 1.169 4285952127
-0.47925431 0.079317145 1.1730001 4286018673
-0.47864667 0.079587616 1.177 4286018916
-0.47964287 0.080128573 1.1850001 4286019190
-0.48222002 0.080940001 1.197 4285953161
-0.48194477 0.081278101 1.202 4285952901
-0.48125145 0.081548579 1.2060001 4285887361
-0.48054287 0.08181905 1.21 4285821569
-0.47981909 0.082089528 1.2140001 4285690241
-0.47947338 0.082427621 1.2190001 4285623675
-0.47871715 0.082698092 1.223 4285558390
-0.47989336 0.08330667 1.2320001 4285493107
-0.48413619 0.084456198 1.2490001 4285361521
-0.48368573 0.08479429 1.2540001 4285229422
-0.48475143 0.085402861 1.263 4285032300
-0.48234573 0.085402861 1.263 4284900712
-0.48184001 0.085740954 1.268 4284769636
-0.48282763 0.086349532 1.2770001 4284704350
-0.4822762 0.086687624 1.2820001 4284573016
-0.48170573 0.087025717 1.2870001 4284507485
-0.4826057 0.08763428 1.296 4284507235
-0.48198956 0.087972388 1.3010001 4284506725
-0.47951147 0.087972388 1.3010001 4284441191
-0.48070005 0.08864858 1.3110001 4284440678
-0.4818505 0.089324765 1.3210001 4284440421
-0.4811486 0.089662857 1.3260001 4284440415
-0.48042765 0.090000957 1.3310001 4284572249
-0.47789243 0.090000957 1.3310001 4284704088
-0.48499998 0.091826662 1.358 4284244311
-0.48809716 0.092908576 1.3740001 4283784532
-0.48724669 0.093246669 1.3790001 4283848018
-0.48848575 0.093990482 1.3900001 4283846229
-0.48793527 0.094396196 1.396 4283453016
-0.48736191 0.09480191 1.4020001 4283058503
-0.48642004 0.095140003 1.4070001 4283518006
-0.48786575 0.09595143 1.419 4283912264
-0.48926577 0.096762858 1.4310001 4284176474
-0.49266002 0.097980008 1.4490001 4284440670
-0.49192858 0.098385714 1.455 4284965219
-0.49319148 0.099197149 1.4670001 4285555566
-0.49240285 0.099602856 1.473 4285951353
-0.49391809 0.10048191 1.4860001 4286347134
-0.49538383 0.10136096 1.4990001 4286610307
-0.25272667 0.079046667 1.169 4280296474
-0.25049999 0.079046667 1.169 4279902486
-0.24742381 0.078776196 1.1650001 4279507218
-0.24520479 0.078776196 1.1650001 4279177744
-0.24215142 0.07850571 1.161 4278980366
-0.24076669 0.078776196 1.1650001 4278784010
-0.23854764 0.078776196 1.1650001 4278783750
-0.23632859 0.078776196 1.1650001 4278783760
-0.23410954 0.078776196 1.1650001 4279569434
-0.23268667 0.079046667 1.169 4280421661
-0.23046 0.079046667 1.169 4281220896
-0.22823334 0.079046667 1.169 4282073907
-0.31097999 0.04567714 0.65700001 4286741126
-0.31020001 0.045746669 0.65800005 4286414213
-0.31082478 0.046024766 0.66200006 4286085761
-0.30909619 0.045955241 0.66100001 4285823870
-0.30737144 0.045885716 0.66000003 4285626749
-0.48468098 0.072652385 1.0450001 4285757564
-0.48269051 0.072652385 1.0450001 4285888639
-0.48070005 0.072652385 1.0450001 4285822338
-0.48008385 0.072860956 1.0480001 4285756796
-0.4799124 0.073139049 1.052 4285298294
-0.47927147 0.073347628 1.0550001 4284904050
-0.4786191 0.0735562 1.0580001 4284968815
-0.47660387 0.0735562 1.0580001 4285035133
-0.47593433 0.073764771 1.0610001 4285297035
-0.47704002 0.074251436 1.0680001 4285626766
-0.47767431 0.074668571 1.074 4286939794
-0.47872859 0.075155243 1.0810001 4288255893
-0.48107907 0.075850479 1.0910001 4289310105
-0.48075715 0.076128572 1.095 4290360472
-0.47998288 0.076337151 1.098 4290231191
-0.48093811 0.076823808 1.105 4290157980
-0.47753334 0.076615237 1.102 4289175457
-0.47672856 0.076823808 1.105 4288254112
-0.47806001 0.077380002 1.113 4286874271
-0.47893333 0.077866666 1.12 4285560206
-0.47807714 0.078075238 1.123 4285491581
-0.47763336 0.078353338 1.1270001 4285492868
-0.47717431 0.078631431 1.131 4285625226
-0.47628 0.078840002 1.1340001 4285822339
-0.47412002 0.078840002 1.1340001 4286084988
-0.47695428 0.079674289 1.146 4286347387
-0.4809857 0.080717139 1.161 4286216570
-0.48207334 0.08127334 1.169 4286149757
-0.48148862 0.081551433 1.1730001 4286083456
-0.48088858 0.081829526 1.177 4286018423
-0.48027337 0.082107626 1.1810001 4286018414
-0.47964287 0.082385719 1.1850001 4286018423
-0.48060861 0.082941905 1.1930001 4285952896
-0.48194477 0.083567619 1.202 4285952894
-0.48125145 0.08384572 1.2060001 4285887355
-0.48054287 0.084123813 1.21 4285821564
-0.47981909 0.084401913 1.2140001 4285689980
-0.48104668 0.085027628 1.223 4285624439
-0.4802829 0.085305721 1.2270001 4285559155
-0.48145145 0.085931435 1.2360001 4285558642
-0.4860743 0.087182865 1.2540001 4285295985
-0.4856143 0.087530479 1.2590001 4285098353
-0.48475143 0.087808572 1.263 4284966770
-0.48425525 0.088156193 1.268 4284834923
-0.48184001 0.088156193 1.268 4284704100
-0.48282763 0.088781908 1.2770001 4284638048
-0.4822762 0.08912953 1.2820001 4284572252
-0.48170573 0.089477144 1.2870001 4284572511
-0.4807438 0.089755237 1.291 4284507490
-0.48198956 0.090450481 1.3010001 4284441191
-0.47951147 0.090450481 1.3010001 4284375916
-0.48253337 0.091493338 1.3160001 4284375142
-0.48367432 0.092188574 1.3260001 4284375136
-0.48296288 0.092536196 1.3310001 4284374366
-0.48223239 0.092883818 1.3360001 4284308060
-0.47968763 0.092883818 1.3360001 4284239960
-0.48678571 0.094760954 1.363 4283778901
-0.48809716 0.095525712 1.3740001 4283386197
-0.48724669 0.095873341 1.3790001 4283648854
-0.48848575 0.096638106 1.3900001 4283911769
-0.49003237 0.097472385 1.4020001 4283649372
-0.48910004 0.097820006 1.4070001 4283453527
-0.48642004 0.097820006 1.4070001 4283847507
-0.48786575 0.098654293 1.419 4284310108
-0.48926577 0.099488579 1.4310001 4284903781
-0.49469998 0.10115714 1.455 4285561196
-0.49192858 0.10115714 1.455 4286087794
-0.49319148 0.10199144 1.4670001 4286678136
-0.49240285 0.10240858 1.473 4286678653
-0.49391809 0.10331238 1.4860001 4286743934
-0.49538383 0.10421619 1.4990001 4286809471
-0.25272667 0.08127334 1.169 4280166944
-0.25049999 0.08127334 1.169 4279836699
-0.24742381 0.080995239 1.1650001 4279571989
-0.24520479 0.080995239 1.1650001 4279308306
-0.24298574 0.080995239 1.1650001 4279045904
-0.24159333 0.08127334 1.169 4278783242
-0.23936667 0.08127334 1.169 4278586372
-0.23714 0.08127334 1.169 4278455309
-0.23491335 0.08127334 1.169 4279307287
-0.23268667 0.08127334 1.169 4280225053
-0.23046 0.08127334 1.169 4281154083
-0.22823334 0.08127334 1.169 4282074165
-0.31097999 0.046928573 0.65700001 4286808968
-0.31020001 0.047000002 0.65800005 4286479755
-0.31082478 0.047285721 0.66200006 4286151300
-0.30956382 0.047285721 0.66200006 4285823614
-0.30737144 0.04714286 0.66000003 4285561467
-0.48468098 0.074642867 1.0450001 4285626489
-0.48269051 0.074642867 1.0450001 4285691775
-0.48070005 0.074642867 1.0450001 4285560710
-0.48008385 0.074857146 1.0480001 4285495165
-0.4799124 0.07514286 1.052 4285953141
-0.47927147 0.075357147 1.0550001 4286410610
-0.4786191 0.075571433 1.0580001 4286869616
-0.47795528 0.075785719 1.0610001 4287328906
-0.47728002 0.076000005 1.064 4287727524
-0.47838002 0.076500006 1.0710001 4288126120
-0.47767431 0.076714285 1.074 4288457900
-0.4774 0.077000007 1.0780001 4288789680
-0.48107907 0.077928573 1.0910001 4288592821
-0.48075715 0.078214288 1.095 4288395946
-0.47998288 0.078428574 1.098 4288260768
-0.48093811 0.078928567 1.105 4288125595
-0.47753334 0.078714289 1.102 4287661718
-0.47672856 0.078928567 1.105 4287132556
-0.47806001 0.079500005 1.113 4286410883
-0.47893333 0.079999998 1.12 4285689215
-0.47807714 0.080214284 1.123 4285755771
-0.47763336 0.080500007 1.1270001 4285822331
-0.47844002 0.081 1.1340001 4285953659
-0.47628 0.081 1.1340001 4286019452
-0.47412002 0.081 1.1340001 4286216318
-0.47695428 0.081857145 1.146 4286347901
-0.4809857 0.082928576 1.161 4286216573
-0.48207334 0.083500005 1.169 4286150527
-0.48148862 0.08378572 1.1730001 4286018945
-0.48088858 0.084071428 1.177 4285952892
-0.48190001 0.084642865 1.1850001 4285952632
-0.48126191 0.084928572 1.189 4285952632
-0.48222002 0.085500002 1.197 4285953144
-0.48194477 0.085857145 1.202 4285887863
-0.48125145 0.08614286 1.2060001 4285822070
-0.48054287 0.086428568 1.21 4285821815
-0.47823811 0.086428568 1.21 4285821560
-0.48104668 0.087357149 1.223 4285887092
-0.4802829 0.087642863 1.2270001 4285755504
-0.48145145 0.088285714 1.2360001 4285624432
-0.4860743 0.089571431 1.2540001 4285360753
-0.4856143 0.089928575 1.2590001 4285098356
-0.48475143 0.090214282 1.263 4284966776
-0.48234573 0.090214282 1.263 4284834926
-0.48184001 0.090571426 1.268 4284769125
-0.48282763 0.091214284 1.2770001 4284637795
-0.4822762 0.091571428 1.2820001 4284768609
-0.48170573 0.091928571 1.2870001 4284965217
-0.4826057 0.092571422 1.296 4284572258
-0.48198956 0.092928581 1.3010001 4284179305
-0.48135433 0.093285725 1.3060001 4283982449
-0.48436671 0.094357148 1.3210001 4283785574
-0.48549813 0.095071435 1.3310001 4283980379
-0.48477715 0.095428571 1.3360001 4284240733
-0.48223239 0.095428571 1.3360001 4284240223
-0.47968763 0.095428571 1.3360001 4284239705
-0.49071428 0.098142862 1.3740001 4283976531
-0.48809716 0.098142862 1.3740001 4283713622
-0.48936668 0.098928578 1.3850001 4283976538
-0.4905943 0.099714287 1.396 4284304989
-0.49178001 0.1005 1.4070001 4284632929
-0.49118575 0.10092857 1.4130001 4285026664
-0.48849434 0.10092857 1.4130001 4285423984
-0.4899286 0.10178572 1.4250001 4285888880
-0.48926577 0.1022143 1.4310001 4286217585
-0.49469998 0.10392857 1.455 4286546297
-0.49395716 0.10435715 1.4610001 4286743682
-0.49319148 0.10478573 1.4670001 4286941314
-0.49240285 0.10521429 1.473 4286941570
-0.49192381 0.10571428 1.48 4286942079
-0.49538383 0.10707143 1.4990001 4286941820
-0.25359145 0.08378572 1.1730001 4280428839
-0.25049999 0.083500005 1.169 4280098592
-0.24742381 0.08321429 1.1650001 4279769113
-0.24520479 0.08321429 1.1650001 4279373589
-0.24298574 0.08321429 1.1650001 4279176210
-0.24159333 0.083500005 1.169 4278913546
-0.23936667 0.083500005 1.169 4278782210
-0.23632859 0.08321429 1.1650001 4278716683
-0.23410954 0.08321429 1.1650001 4279175701
-0.23268667 0.083500005 1.169 4279635229
-0.23046 0.083500005 1.169 4281089062
-0.31223145 0.048179999 0.65700001 4285169279
-0.31097999 0.048179999 0.65700001 4286873729
-0.31020001 0.048253335 0.65800005 4286545283
-0.31035525 0.048473332 0.66100001 4286216829
-0.30909619 0.048473332 0.66100001 4285888375
-0.30644003 0.048253335 0.65800005 4285560182
-0.30472288 0.048179999 0.65700001 4285559926
-0.48407623 0.076853342 1.0480001 4285560188
-0.48208004 0.076853342 1.0480001 4285364099
-0.48008385 0.076853342 1.0480001 4285232523
-0.48128098 0.077366672 1.0550001 4286542740
-0.47927147 0.077366672 1.0550001 4287924882
-0.4786191 0.077586666 1.0580001 4288782736
-0.47795528 0.077806674 1.0610001 4289704606
-0.47728002 0.078026667 1.064 4290167724
-0.47838002 0.078540012 1.0710001 4290683049
-0.47945336 0.079053335 1.0780001 4289966502
-0.47872859 0.079273336 1.0810001 4289307807
-0.48284286 0.080300003 1.095 4287862681
-0.48207429 0.080520004 1.098 4286415251
-0.47998288 0.080520004 1.098 4286278797
-0.48093811 0.081033334 1.105 4286147723
-0.47753334 0.080813326 1.102 4286082186
-0.47672856 0.081033334 1.105 4286084227
-0.47634193 0.081326671 1.1090001 4285954172
-0.47722286 0.081840008 1.1160001 4285823100
-0.47807714 0.082353331 1.123 4286019709
-0.47763336 0.082646675 1.1270001 4286216317
-0.47844002 0.083160006 1.1340001 4286216573
-0.47795999 0.083453335 1.138 4286282106
-0.47579238 0.083453335 1.138 4286348151
-0.4786191 0.084333345 1.1500001 4286413433
-0.4809857 0.085140005 1.161 4286282362
-0.48207334 0.085726663 1.169 4286150527
-0.48148862 0.086020008 1.1730001 4286019203
-0.48088858 0.086313337 1.177 4285953406
-0.48027337 0.086606674 1.1810001 4285954169
-0.48126191 0.087193333 1.189 4285953656
-0.48222002 0.087779999 1.197 4285887863
-0.48194477 0.088146664 1.202 4285887863
-0.48125145 0.088440008 1.2060001 4285822839
-0.48054287 0.088733338 1.21 4285821558
-0.47823811 0.088733338 1.21 4285952629
-0.48104668 0.089686669 1.223 4286149233
-0.4802829 0.089980014 1.2270001 4285886572
-0.48145145 0.090640001 1.2360001 4285689197
-0.48413619 0.091593333 1.2490001 4285425518
-0.4856143 0.092326671 1.2590001 4285163376
-0.48475143 0.09262 1.263 4285032306
-0.48425525 0.092986666 1.268 4284899692
-0.48184001 0.092986666 1.268 4284768102
-0.48282763 0.093646668 1.2770001 4284702562
-0.4822762 0.094013333 1.2820001 4285030494
-0.48320284 0.094673328 1.291 4285357919
-0.4826057 0.095040001 1.296 4284636767
-0.48384196 0.095773347 1.3060001 4283979619
-0.48504004 0.09650667 1.3160001 4283584871
-0.48620003 0.097240001 1.3260001 4283256413
-0.48549813 0.097606674 1.3310001 4283649108
-0.48477715 0.097973339 1.3360001 4284107864
-0.48223239 0.097973339 1.3360001 4284173405
-0.49117717 0.10032 1.368 4284239965
-0.49250001 0.10112667 1.3790001 4284110430
-0.48987332 0.10112667 1.3790001 4284046947
-0.49113339 0.10193334 1.3900001 4284376681
-0.49270287 0.10281333 1.4020001 4284769898
-0.49178001 0.10318001 1.4070001 4285687404
-0.49118575 0.10362001 1.4130001 4286606194
-0.48849434 0.10362001 1.4130001 4287066232
-0.4899286 0.1045 1.4250001 4287529594
-0.48926577 0.10494001 1.4310001 4287530364
-0.49266002 0.10626 1.4490001 4287530625
-0.49395716 0.10714 1.4610001 4287337095
-0.49319148 0.10758001 1.4670001 4287204741
-0.49240285 0.10802 1.473 4287139203
-0.49192381 0.10853333 1.48 4287138432
-0.49307054 0.10941334 1.4920001 4287137918
-0.25359145 0.086020008 1.1730001 4280756256
-0.25049999 0.085726663 1.169 4280426267
-0.24827334 0.085726663 1.169 4279966231
-0.24520479 0.085433342 1.1650001 4279504403
-0.24298574 0.085433342 1.1650001 4279306256
-0.24159333 0.085726663 1.169 4279109387
-0.23936667 0.085726663 1.169 4279043845
-0.23714 0.085726663 1.169 4278978319
-0.23410954 0.085433342 1.1650001 4278978586
-0.23189048 0.085433342 1.1650001 4279044896
-0.22967143 0.085433342 1.1650001 4281024038
-0.31348288 0.049431428 0.65700001 4282790733
-0.31223145 0.049431428 0.65700001 4284706426
-0.31097999 0.049431428 0.65700001 4286612091
-0.30972856 0.049431428 0.65700001 4286413692
-0.30988571 0.049657144 0.66000003 4286216822
-0.30862859 0.049657144 0.66000003 4286347120
-0.30737144 0.049657144 0.66000003 4286477682
-0.30611429 0.049657144 0.66000003 4286937204
-0.30485713 0.049657144 0.66000003 4287396730
-0.48208004 0.078849532 1.0480001 4287726464
-0.48008385 0.078849532 1.0480001 4288056217
-0.47808763 0.078849532 1.0480001 4288520371
-0.47790858 0.079150476 1.052 4289050290
-0.47726193 0.079376198 1.0550001 4288914097
-0.47660387 0.079601914 1.0580001 4288856498
-0.47593433 0.079827629 1.0610001 4288459444
-0.47525331 0.080053329 1.064 4288128170
-0.47767431 0.080805711 1.074 4287861153
-0.48182857 0.081859052 1.0880001 4287594383
-0.48284286 0.082385719 1.095 4286806653
-0.48207429 0.082611434 1.098 4286084476
-0.48173141 0.082912378 1.102 4286149499
-0.47963238 0.082912378 1.102 4286280060
-0.47753334 0.082912378 1.102 4286215038
-0.47543427 0.082912378 1.102 4286215545
-0.47634193 0.083439052 1.1090001 4286085237
-0.47594002 0.083740003 1.113 4286019450
-0.47679999 0.08426667 1.12 4286150527
-0.47763336 0.084793337 1.1270001 4286216319
-0.4754867 0.084793337 1.1270001 4286216320
-0.47964004 0.085921913 1.1420001 4286216568
-0.47913715 0.086222857 1.146 4286282097
-0.4786191 0.086523816 1.1500001 4286347636
-0.4809857 0.087351426 1.161 4286216312
-0.48042384 0.087652385 1.1650001 4286150527
-0.47820479 0.087652385 1.1650001 4285953414
-0.47925431 0.088254295 1.1730001 4285756800
-0.48027337 0.088856198 1.1810001 4285822587
-0.47802386 0.088856198 1.1810001 4285888377
-0.47899714 0.089458093 1.189 4285822327
-0.48194477 0.09043619 1.202 4285822583
-0.48125145 0.090737149 1.2060001 4285756792
-0.48054287 0.0910381 1.21 4285755765
-0.47981909 0.091339052 1.2140001 4285821555
-0.48104668 0.09201619 1.223 4285952622
-0.4802829 0.092317149 1.2270001 4285755497
-0.47989336 0.092693344 1.2320001 4285557354
-0.48413619 0.093972385 1.2490001 4285294699
-0.48175716 0.093972385 1.2490001 4285097323
-0.4832162 0.094724767 1.2590001 4284900716
-0.48425525 0.095401898 1.268 4284768105
-0.48336002 0.095702864 1.2720001 4284636519
-0.48471811 0.096455246 1.2820001 4284505185
-0.48415715 0.096831433 1.2870001 4284439132
-0.48320284 0.097132377 1.291 4284373340
-0.48446766 0.097884767 1.3010001 4284175709
-0.48198956 0.097884767 1.3010001 4283978333
-0.4868829 0.099389531 1.3210001 4283912541
-0.48436671 0.099389531 1.3210001 4283845717
-0.48732191 0.1005181 1.3360001 4284042317
-0.48876861 0.10134573 1.3470001 4284304468
-0.49017334 0.10217334 1.358 4284436316
-0.49117717 0.10292572 1.368 4284568162
-0.49071428 0.10337715 1.3740001 4284832617
-0.48987332 0.10375334 1.3790001 4285097072
-0.49113339 0.10458095 1.3900001 4285557112
-0.49270287 0.10548382 1.4020001 4285951864
-0.49003237 0.10548382 1.4020001 4286413432
-0.49118575 0.10631143 1.4130001 4286875004
-0.49056855 0.10676286 1.419 4287400064
-0.4899286 0.10721429 1.4250001 4287859588
-0.48926577 0.10766573 1.4310001 4287662984
-0.49266002 0.10902001 1.4490001 4287466378
-0.49192858 0.10947143 1.455 4287335564
-0.49319148 0.11037429 1.4670001 4287270280
-0.49240285 0.11082572 1.473 4287204484
-0.49192381 0.11135238 1.48 4287138178
-0.49307054 0.11225525 1.4920001 4287072641
-0.25359145 0.088254295 1.1730001 4280425753
-0.25049999 0.087953337 1.169 4280295191
-0.24827334 0.087953337 1.169 4279834389
-0.24604666 0.087953337 1.169 4279438866
-0.24298574 0.087652385 1.1650001 4279110159
-0.24159333 0.087953337 1.169 4278847500
-0.23936667 0.087953337 1.169 4278978569
-0.23714 0.087953337 1.169 4279110676
