# .PCD v0.7 - Point Cloud Data file format
VERSION 0.7
FIELDS x y z rgba
SIZE 4 4 4 4
TYPE F F F U
COUNT 1 1 1 1
WIDTH 1121
HEIGHT 1
VIEWPOINT 0 0 0 1 0 0 0
POINTS 1121
DATA ascii
0.071322866 0.35123146 1.4130001 4294901502
0.074014291 0.35123146 1.4130001 4294901502
0.076380007 0.34974003 1.4070001 4294901502
0.079060003 0.34974003 1.4070001 4294901502
0.081739999 0.34974003 1.4070001 4294901502
0.084120005 0.34849715 1.4020001 4294901502
0.087099999 0.34974003 1.4070001 4294901502
0.089780003 0.34974003 1.4070001 4294901502
0.092854291 0.35123146 1.4130001 4294901502
0.095545717 0.35123146 1.4130001 4294901502
0.098237149 0.35123146 1.4130001 4294901502
0.10092857 0.35123146 1.4130001 4294901502
0.10362001 0.35123146 1.4130001 4294901502
0.10631143 0.35123146 1.4130001 4294901502
0.10854 0.34974003 1.4070001 4294901502
0.11122 0.34974003 1.4070001 4294901502
0.11390001 0.34974003 1.4070001 4294901502
0.11616572 0.34849715 1.4020001 4294901502
0.11883619 0.34849715 1.4020001 4294901502
0.12150668 0.34849715 1.4020001 4294901502
0.12417714 0.34849715 1.4020001 4294901502
0.12630476 0.34700572 1.396 4294901502
-0.37423238 0.16431238 0.65600002 4286872967
-0.37298286 0.16431238 0.65600002 4286609797
-0.37173334 0.16431238 0.65600002 4286544515
-0.37048382 0.16431238 0.65600002 4286479496
-0.36923429 0.16431238 0.65600002 4286413966
-0.3775619 0.1703238 0.68000001 4285756015
-0.37626669 0.1703238 0.68000001 4285425514
-0.37497142 0.1703238 0.68000001 4285030502
-0.37532476 0.17107525 0.68300003 4284702560
-0.37457144 0.17132571 0.68400002 4284571738
-0.37436002 0.17182668 0.68600005 4284440923
-0.37305334 0.17182668 0.68600005 4284637276
-0.37174669 0.17182668 0.68600005 4284833880
-0.37044004 0.17182668 0.68600005 4284768085
-0.45255718 0.29681432 1.1850001 4285425260
-0.44878006 0.2958124 1.1810001 4285293936
-0.44653052 0.2958124 1.1810001 4285228399
-0.44428101 0.2958124 1.1810001 4285096814
-0.44203147 0.2958124 1.1810001 4285031030
-0.44276097 0.29781619 1.189 4284703614
-0.44049618 0.29781619 1.189 4284439918
-0.43823144 0.29781619 1.189 4284241246
-0.43450004 0.29681432 1.1850001 4283980123
-0.43224287 0.29681432 1.1850001 4282002521
-0.42998573 0.29681432 1.1850001 4280099408
-0.4291724 0.29781619 1.189 4280033351
-0.4269076 0.29781619 1.189 4280032832
-0.42464286 0.29781619 1.189 4279967289
-0.42237809 0.29781619 1.189 4279901759
-0.42011335 0.29781619 1.189 4279967301
-0.42241713 0.30107239 1.202 4280097853
-0.41837999 0.29982001 1.197 4280359477
-0.4178381 0.30107239 1.202 4280687156
-0.41105428 0.29781619 1.189 4280424500
-0.40878952 0.29781619 1.189 4280162098
-0.36404288 0.37546384 1.4990001 4281414469
-0.36118764 0.37546384 1.4990001 4281611341
-0.3583324 0.37546384 1.4990001 4282267734
-0.35547715 0.37546384 1.4990001 4282860626
-0.34976667 0.37546384 1.4990001 4283785820
-0.34529147 0.37371048 1.4920001 4284310890
-0.34244955 0.37371048 1.4920001 4284836457
-0.33255145 0.36594573 1.4610001 4285298793
-0.3297686 0.36594573 1.4610001 4285761395
-0.32564288 0.36444286 1.455 4285957501
-0.32287145 0.36444286 1.455 4286087795
-0.32010001 0.36444286 1.455 4286414186
-0.31732857 0.36444286 1.455 4286675852
-0.31455714 0.36444286 1.455 4287667631
-0.31307143 0.36594573 1.4610001 4288652459
-0.31028858 0.36594573 1.4610001 4288519848
-0.3087686 0.3674486 1.4670001 4288454573
-0.30868572 0.37070474 1.48 4288060850
-0.30710667 0.37220764 1.4860001 4287667098
-0.3055048 0.37371048 1.4920001 4285821571
-0.30408287 0.37546384 1.4990001 4283909744
-0.28980669 0.37546384 1.4990001 4282466644
-0.28197429 0.36895144 1.473 4281808713
-0.27803144 0.3674486 1.4670001 4282201662
-0.27411145 0.36594573 1.4610001 4282530906
-0.2713286 0.36594573 1.4610001 4283918199
-0.26854575 0.36594573 1.4610001 4285362042
-0.26467142 0.36444286 1.455 4285296254
-0.26189998 0.36444286 1.455 4285230457
-0.2591286 0.36444286 1.455 4285427060
-0.25635716 0.36444286 1.455 4285623670
-0.25358573 0.36444286 1.455 4285692280
-0.21114002 0.36294004 1.4490001 4281678133
-0.20838001 0.36294004 1.4490001 4281468732
-0.20476858 0.36143717 1.4430001 4281213776
-0.20202002 0.36143717 1.4430001 4283325796
-0.19844286 0.35993427 1.437 4285421928
-0.19570573 0.35993427 1.437 4285224557
-0.19296858 0.35993427 1.437 4285027442
-0.19023144 0.35993427 1.437 4286279032
-0.18827716 0.36143717 1.4430001 4287524729
-0.18552858 0.36143717 1.4430001 4287524219
-0.18354 0.36294004 1.4490001 4287523986
-0.18078001 0.36294004 1.4490001 4288974505
-0.17875715 0.36444286 1.455 4290419616
-0.17598571 0.36444286 1.455 4290023576
-0.17392859 0.36594573 1.4610001 4289695148
-0.17114572 0.36594573 1.4610001 4290488513
-0.1690543 0.3674486 1.4670001 4291344318
-0.16773333 0.37070474 1.48 4291344060
-0.16491428 0.37070474 1.48 4291409603
-0.1641762 0.37546384 1.4990001 4291605706
0.0469 0.35242 1.4070001 4294901502
0.04958 0.35242 1.4070001 4294901502
0.05226 0.35242 1.4070001 4294901502
0.054940004 0.35242 1.4070001 4294835710
0.057620004 0.35242 1.4070001 4294835710
0.0603 0.35242 1.4070001 4294835710
0.062980004 0.35242 1.4070001 4294835966
0.06566 0.35242 1.4070001 4294835966
0.068340003 0.35242 1.4070001 4294901502
0.071020007 0.35242 1.4070001 4294901502
0.073700003 0.35242 1.4070001 4294901502
0.076108575 0.35116762 1.4020001 4294901502
0.078441903 0.34966478 1.396 4294901502
0.081100948 0.34966478 1.396 4294901502
0.083760001 0.34966478 1.396 4294901502
0.086419053 0.34966478 1.396 4294901502
0.089078099 0.34966478 1.396 4294901502
0.091737144 0.34966478 1.396 4294901502
0.094396196 0.34966478 1.396 4294901502
0.097472385 0.35116762 1.4020001 4294901502
0.10014286 0.35116762 1.4020001 4294901502
0.10281333 0.35116762 1.4020001 4294901502
0.10548382 0.35116762 1.4020001 4294901502
0.10815429 0.35116762 1.4020001 4294901502
0.11082476 0.35116762 1.4020001 4294901502
0.11349525 0.35116762 1.4020001 4294901502
0.11616572 0.35116762 1.4020001 4294901502
0.11883619 0.35116762 1.4020001 4294901502
0.12150668 0.35116762 1.4020001 4294901502
0.12417714 0.35116762 1.4020001 4294901502
0.12684762 0.35116762 1.4020001 4294901502
0.12896381 0.34966478 1.396 4294901502
0.13162287 0.34966478 1.396 4294901502
-0.37423238 0.16556191 0.65600002 4286939011
-0.37355143 0.16581428 0.65700001 4286676608
-0.37173334 0.16556191 0.65600002 4286610814
-0.37048382 0.16556191 0.65600002 4286545281
-0.36923429 0.16556191 0.65600002 4286480004
-0.37645143 0.1711143 0.67800003 4285821555
-0.37571335 0.17136668 0.67900002 4285492080
-0.37497142 0.17161904 0.68000001 4285096045
-0.37532476 0.1723762 0.68300003 4284702823
-0.37457144 0.17262858 0.68400002 4284571746
-0.37436002 0.17313334 0.68600005 4284506207
-0.37305334 0.17313334 0.68600005 4284571741
-0.37174669 0.17313334 0.68600005 4284702807
-0.37044004 0.17313334 0.68600005 4284637520
-0.37182385 0.17439525 0.69100004 4284637272
-0.37050763 0.17439525 0.69100004 4284702815
-0.45255718 0.29907146 1.1850001 4285557106
-0.44726002 0.29705238 1.177 4285426042
-0.44501811 0.29705238 1.177 4285294707
-0.4427762 0.29705238 1.177 4285163373
-0.44053429 0.29705238 1.177 4285031537
-0.44127145 0.29907146 1.1850001 4284637812
-0.43901432 0.29907146 1.1850001 4284307812
-0.43823144 0.30008096 1.189 4283978836
-0.43303338 0.29806194 1.1810001 4283715667
-0.43078384 0.29806194 1.1810001 4281607506
-0.42998573 0.29907146 1.1850001 4279575368
-0.4291724 0.30008096 1.189 4279575102
-0.4269076 0.30008096 1.189 4279640635
-0.42464286 0.30008096 1.189 4279640631
-0.42237809 0.30008096 1.189 4279705402
-0.42011335 0.30008096 1.189 4279901757
-0.41105428 0.30008096 1.189 4280358439
-0.40878952 0.30008096 1.189 4280423982
-0.36689809 0.37831905 1.4990001 4281349187
-0.36088574 0.37503809 1.4860001 4281546568
-0.35805523 0.37503809 1.4860001 4281808463
-0.35665908 0.3765524 1.4920001 4282596950
-0.35381716 0.3765524 1.4920001 4283454038
-0.35262191 0.37831905 1.4990001 4283852630
-0.34673333 0.37503809 1.4860001 4284245856
-0.34251431 0.37352383 1.48 4284835945
-0.33969522 0.37352383 1.48 4285428856
-0.3311857 0.36721429 1.455 4285826952
-0.32841429 0.36721429 1.455 4286220166
-0.32564288 0.36721429 1.455 4286022533
-0.32287145 0.36721429 1.455 4285890173
-0.31878003 0.36570004 1.4490001 4286937205
-0.31732857 0.36721429 1.455 4288057488
-0.31455714 0.36721429 1.455 4288129195
-0.3117857 0.36721429 1.455 4288258730
-0.31028858 0.36872858 1.4610001 4288389033
-0.3087686 0.37024289 1.4670001 4288520106
-0.3072257 0.37175715 1.473 4287601836
-0.30586666 0.37352383 1.48 4286677644
-0.3042762 0.37503809 1.4860001 4285030765
-0.30408287 0.37831905 1.4990001 4283456871
-0.28980669 0.37831905 1.4990001 4282201676
-0.28331429 0.37352383 1.48 4281284420
-0.28049523 0.37352383 1.48 4281940028
-0.27411145 0.36872858 1.4610001 4282661721
-0.2713286 0.36872858 1.4610001 4283851126
-0.26854575 0.36872858 1.4610001 4285099127
-0.26576287 0.36872858 1.4610001 4285099383
-0.26298001 0.36872858 1.4610001 4285098873
-0.26019713 0.36872858 1.4610001 4285294971
-0.25635716 0.36721429 1.455 4285490556
-0.25358573 0.36721429 1.455 4285759102
-0.14669999 0.23850001 0.94500005 4282003005
-0.14490001 0.23850001 0.94500005 4282525755
-0.20838001 0.36570004 1.4490001 4280288299
-0.20562002 0.36570004 1.4490001 4280031299
-0.20202002 0.36418572 1.4430001 4282735708
-0.19927144 0.36418572 1.4430001 4285487715
-0.19652286 0.36418572 1.4430001 4285225067
-0.19296858 0.36267143 1.437 4285027440
-0.19102572 0.36418572 1.4430001 4286344565
-0.18827716 0.36418572 1.4430001 4287655286
-0.18552858 0.36418572 1.4430001 4287524216
-0.18354 0.36570004 1.4490001 4287393424
-0.18152858 0.36721429 1.455 4288777383
-0.17875715 0.36721429 1.455 4290218403
-0.17671144 0.36872858 1.4610001 4289824415
-0.17392859 0.36872858 1.4610001 4289432231
-0.17184858 0.37024289 1.4670001 4290223279
-0.16974571 0.37175715 1.473 4291080375
-0.16773333 0.37352383 1.48 4291146175
-0.16625144 0.3765524 1.4920001 4291211969
-0.1641762 0.37831905 1.4990001 4291278020
0.043874286 0.3523238 1.396 4294901502
0.046733335 0.35383812 1.4020001 4294900476
0.049403813 0.35383812 1.4020001 4294899450
0.052074287 0.35383812 1.4020001 4294901500
0.054940004 0.35510001 1.4070001 4294835966
0.05741524 0.35383812 1.4020001 4294770174
0.060085718 0.35383812 1.4020001 4294768894
0.062756196 0.35383812 1.4020001 4294770174
0.06542667 0.35383812 1.4020001 4294835966
0.068097152 0.35383812 1.4020001 4294901500
0.070767626 0.35383812 1.4020001 4294900730
0.073438093 0.35383812 1.4020001 4294900988
0.075782858 0.3523238 1.396 4294901502
0.078441903 0.3523238 1.396 4294901502
0.081100948 0.3523238 1.396 4294901502
0.083760001 0.3523238 1.396 4294901502
0.086419053 0.3523238 1.396 4294901502
0.089078099 0.3523238 1.396 4294901502
0.091737144 0.3523238 1.396 4294901502
0.094396196 0.3523238 1.396 4294901502
0.097055241 0.3523238 1.396 4294901502
0.099714287 0.3523238 1.396 4294901502
0.10237334 0.3523238 1.396 4294901502
0.10503238 0.3523238 1.396 4294901502
0.10769143 0.3523238 1.396 4294901502
0.11035048 0.3523238 1.396 4294901502
0.11300953 0.3523238 1.396 4294901502
0.11566857 0.3523238 1.396 4294901502
0.11832762 0.3523238 1.396 4294901502
0.12150668 0.35383812 1.4020001 4294901502
0.12417714 0.35383812 1.4020001 4294901502
0.12684762 0.35383812 1.4020001 4294901502
0.12951809 0.35383812 1.4020001 4294901502
0.13218857 0.35383812 1.4020001 4294901502
-0.37490955 0.16655715 0.65500003 4287269774
-0.37423238 0.16681144 0.65600002 4286938495
-0.37355143 0.16706572 0.65700001 4286676092
-0.3723 0.16706572 0.65700001 4286676090
-0.37104857 0.16706572 0.65700001 4286741882
-0.36979717 0.16706572 0.65700001 4286610811
-0.36897144 0.16782857 0.66000003 4286348924
-0.36771429 0.16782857 0.66000003 4286218361
-0.37534097 0.17189716 0.67600006 4285953655
-0.37571335 0.17265999 0.67900002 4285624437
-0.37497142 0.17291428 0.68000001 4285160308
-0.37587428 0.17393143 0.68400002 4284766831
-0.37566671 0.17444001 0.68600005 4284635754
-0.37436002 0.17444001 0.68600005 4284570468
-0.37359715 0.1746943 0.68700004 4284636255
-0.37337241 0.17520285 0.68900001 4284767829
-0.37260005 0.17545715 0.69000006 4284768076
-0.37182385 0.17571144 0.69100004 4284768341
-0.37050763 0.17571144 0.69100004 4284768350
-0.36919147 0.17571144 0.69100004 4284833632
-0.36787525 0.17571144 0.69100004 4284703075
-0.44950193 0.29929429 1.177 4285754489
-0.44726002 0.29929429 1.177 4285557892
-0.44501811 0.29929429 1.177 4285361272
-0.4427762 0.29929429 1.177 4285164141
-0.44203147 0.30031145 1.1810001 4284967020
-0.44127145 0.3013286 1.1850001 4284635755
-0.43753242 0.30031145 1.1810001 4284307034
-0.43528292 0.30031145 1.1810001 4283256650
-0.43156669 0.29929429 1.177 4282206283
-0.42932478 0.29929429 1.177 4281147980
-0.42998573 0.3013286 1.1850001 4280097089
-0.4291724 0.30234572 1.189 4280033078
-0.4269076 0.30234572 1.189 4279903030
-0.36371619 0.37786859 1.4860001 4281678151
-0.36088574 0.37786859 1.4860001 4282005324
-0.35805523 0.37786859 1.4860001 4282333265
-0.35522479 0.37786859 1.4860001 4283059543
-0.35239428 0.37786859 1.4860001 4283785307
-0.35097525 0.37939429 1.4920001 4284244831
-0.34533334 0.37634286 1.48 4284704612
-0.34089431 0.37456286 1.473 4285231465
-0.33258 0.36846003 1.4490001 4285824648
-0.32982004 0.36846003 1.4490001 4286024103
-0.32706001 0.36846003 1.4490001 4286221210
-0.32430002 0.36846003 1.4490001 4286087822
-0.32154003 0.36846003 1.4490001 4286020231
-0.31878003 0.36846003 1.4490001 4287205248
-0.31602001 0.36846003 1.4490001 4288392596
-0.31455714 0.36998573 1.455 4288259240
-0.3117857 0.36998573 1.455 4288192937
-0.30901429 0.36998573 1.455 4288389546
-0.30750573 0.37151146 1.4610001 4288586408
-0.30597433 0.37303716 1.4670001 4286876326
-0.30442002 0.37456286 1.473 4285164158
-0.30304763 0.37634286 1.48 4284570711
-0.30266288 0.37939429 1.4920001 4283980893
-0.30122763 0.38117433 1.4990001 4284440164
-0.29837239 0.38117433 1.4990001 4284899689
-0.29551718 0.38117433 1.4990001 4283784814
-0.28980669 0.38117433 1.4990001 4282135109
-0.28446287 0.37786859 1.4860001 4281676096
-0.28049523 0.37634286 1.48 4282266427
-0.27767619 0.37634286 1.48 4282858328
-0.27244288 0.37303716 1.4670001 4283784822
-0.26964858 0.37303716 1.4670001 4284770675
-0.26685432 0.37303716 1.4670001 4284642161
-0.26298001 0.37151146 1.4610001 4284512122
-0.26019713 0.37151146 1.4610001 4284900483
-0.1503 0.24030001 0.94500005 4281545272
-0.1485 0.24030001 0.94500005 4281743168
-0.14669999 0.24030001 0.94500005 4282330953
-0.14490001 0.24030001 0.94500005 4282920767
-0.14310001 0.24030001 0.94500005 4283716918
-0.14130001 0.24030001 0.94500005 4284506180
-0.13950001 0.24030001 0.94500005 4282531923
-0.20924285 0.36998573 1.455 4279898138
-0.20647144 0.36998573 1.455 4279176759
-0.20370001 0.36998573 1.455 4282274388
-0.2001 0.36846003 1.4490001 4285292383
-0.19652286 0.3669343 1.4430001 4285159274
-0.1937743 0.3669343 1.4430001 4285027438
-0.19102572 0.3669343 1.4430001 4286278770
-0.18906002 0.36846003 1.4490001 4287524980
-0.18630002 0.36846003 1.4490001 4287393910
-0.18354 0.36846003 1.4490001 4287328654
-0.18152858 0.36998573 1.455 4288711590
-0.17875715 0.36998573 1.455 4290024614
-0.17671144 0.37151146 1.4610001 4289694630
-0.17392859 0.37151146 1.4610001 4289366178
-0.17184858 0.37303716 1.4670001 4290026142
-0.16974571 0.37456286 1.473 4290751152
-0.16773333 0.37634286 1.48 4291015618
-0.16625144 0.37939429 1.4920001 4291342784
0.040890481 0.35218576 1.3850001 4293590776
0.043528572 0.35218576 1.3850001 4292932350
0.046333339 0.35345718 1.3900001 4292274170
0.048980955 0.35345718 1.3900001 4293587958
0.051628575 0.35345718 1.3900001 4294901498
0.054510474 0.35498285 1.396 4294835966
0.057169523 0.35498285 1.396 4294835966
0.059828572 0.35498285 1.396 4294835710
0.062487617 0.35498285 1.396 4294835710
0.065146662 0.35498285 1.396 4294835966
0.067805715 0.35498285 1.396 4294901498
0.07046476 0.35498285 1.396 4294506742
0.073123805 0.35498285 1.396 4294177786
0.075782858 0.35498285 1.396 4294113534
0.078441903 0.35498285 1.396 4294115070
0.081100948 0.35498285 1.396 4294049534
0.083400004 0.35345718 1.3900001 4293983998
0.086047627 0.35345718 1.3900001 4294377214
0.088695243 0.35345718 1.3900001 4294704894
0.091342859 0.35345718 1.3900001 4294770430
0.093990482 0.35345718 1.3900001 4294901502
0.096638106 0.35345718 1.3900001 4294901502
0.099714287 0.35498285 1.396 4294901502
0.10237334 0.35498285 1.396 4294901502
0.10503238 0.35498285 1.396 4294901502
0.10769143 0.35498285 1.396 4294901502
0.11035048 0.35498285 1.396 4294901502
0.11300953 0.35498285 1.396 4294901502
0.11566857 0.35498285 1.396 4294901502
0.11832762 0.35498285 1.396 4294901502
0.12150668 0.35650858 1.4020001 4294901502
0.12417714 0.35650858 1.4020001 4294901502
0.12684762 0.35650858 1.4020001 4294901502
0.12951809 0.35650858 1.4020001 4294901502
0.13218857 0.35650858 1.4020001 4294901502
-0.37490955 0.16780476 0.65500003 4287269774
-0.37423238 0.16806096 0.65600002 4287003525
-0.37355143 0.16831714 0.65700001 4286741373
-0.3723 0.16831714 0.65700001 4286807157
-0.37104857 0.16831714 0.65700001 4286938232
-0.37148574 0.16908573 0.66000003 4286741883
-0.37022859 0.16908573 0.66000003 4286545020
-0.36897144 0.16908573 0.66000003 4286414973
-0.36771429 0.16908573 0.66000003 4286283134
-0.37534097 0.17318477 0.67600006 4286020223
-0.37571335 0.17395334 0.67900002 4285821820
-0.37442002 0.17395334 0.67900002 4285290106
-0.37477526 0.17472191 0.68200004 4284832114
-0.37566671 0.17574668 0.68600005 4284766826
-0.37436002 0.17574668 0.68600005 4284701286
-0.37359715 0.17600286 0.68700004 4284767073
-0.37228858 0.17600286 0.68700004 4284832859
-0.37206 0.17651524 0.68900001 4284833109
-0.37128574 0.17677145 0.69000006 4284899160
-0.37050763 0.17702763 0.69100004 4284833883
-0.36919147 0.17702763 0.69100004 4284833630
-0.36894003 0.17754 0.69300002 4284768096
-0.36761999 0.17754 0.69300002 4284768606
-0.44950193 0.3015362 1.177 4285950838
-0.44574004 0.30051145 1.1730001 4285689213
-0.44350573 0.30051145 1.1730001 4285492337
-0.4427762 0.3015362 1.177 4285230182
-0.44352859 0.30358574 1.1850001 4284966761
-0.44127145 0.30358574 1.1850001 4284633965
-0.43753242 0.30256099 1.1810001 4284305751
-0.43380859 0.3015362 1.177 4282530370
-0.43156669 0.3015362 1.177 4280757570
-0.42932478 0.3015362 1.177 4280688707
-0.36334002 0.37736857 1.473 4281808968
-0.36224762 0.37916189 1.48 4282005840
-0.36088574 0.38069904 1.4860001 4282463832
-0.35805523 0.38069904 1.4860001 4282925658
-0.35379049 0.37916189 1.48 4283522141
-0.34788859 0.37583145 1.4670001 4284178790
-0.34509432 0.37583145 1.4670001 4284637039
-0.33950001 0.37275717 1.455 4285165426
-0.33256286 0.3681457 1.437 4285692533
-0.32982573 0.3681457 1.437 4286219655
-0.32708859 0.3681457 1.437 4286221465
-0.32435143 0.3681457 1.437 4286219917
-0.3216143 0.3681457 1.437 4286214017
-0.31887716 0.3681457 1.437 4286220175
-0.31746 0.36968288 1.4430001 4287473309
-0.31471145 0.36968288 1.4430001 4288717730
-0.31326002 0.37122002 1.4490001 4288454823
-0.31050003 0.37122002 1.4490001 4288192936
-0.30901429 0.37275717 1.455 4288390825
-0.30750573 0.37429431 1.4610001 4288650389
-0.30597433 0.37583145 1.4670001 4286150786
-0.30442002 0.37736857 1.473 4283654005
-0.30304763 0.37916189 1.48 4284045161
-0.30266288 0.38223621 1.4920001 4284505711
-0.29982096 0.38223621 1.4920001 4285363573
-0.29837239 0.38402954 1.4990001 4286210924
-0.28845334 0.38223621 1.4920001 4282134077
-0.28446287 0.38069904 1.4860001 4282134842
-0.28163239 0.38069904 1.4860001 4282593080
-0.27880192 0.38069904 1.4860001 4283055189
-0.27244288 0.37583145 1.4670001 4283784051
-0.26964858 0.37583145 1.4670001 4284509039
-0.26685432 0.37583145 1.4670001 4284250731
-0.14982286 0.24133144 0.94200003 4281676345
-0.14802858 0.24133144 0.94200003 4282003775
-0.14669999 0.24210002 0.94500005 4282658886
-0.14490001 0.24210002 0.94500005 4283384393
-0.14310001 0.24210002 0.94500005 4284241228
-0.14130001 0.24210002 0.94500005 4285095759
-0.13950001 0.24210002 0.94500005 4282862674
-0.20924285 0.37275717 1.455 4279505974
-0.20647144 0.37275717 1.455 4278390337
-0.20370001 0.37275717 1.455 4281747532
-0.2001 0.37122002 1.4490001 4285160026
-0.19652286 0.36968288 1.4430001 4285093737
-0.1937743 0.36968288 1.4430001 4285093741
-0.19182001 0.37122002 1.4490001 4286212977
-0.18906002 0.37122002 1.4490001 4287393396
-0.18630002 0.37122002 1.4490001 4287328119
-0.18354 0.37122002 1.4490001 4287327883
-0.18152858 0.37275717 1.455 4288580256
-0.17949429 0.37429431 1.4610001 4289893796
-0.17671144 0.37429431 1.4610001 4289564841
-0.17392859 0.37429431 1.4610001 4289299621
-0.17184858 0.37583145 1.4670001 4289894560
-0.16974571 0.37736857 1.473 4290487983
-0.16773333 0.37916189 1.48 4290950591
-0.16625144 0.38223621 1.4920001 4291473341
-0.16340953 0.38223621 1.4920001 4291539131
0.040890481 0.35482383 1.3850001 4292266976
0.043528572 0.35482383 1.3850001 4290951137
0.046333339 0.35610479 1.3900001 4289714406
0.048804764 0.35482383 1.3850001 4292276458
0.051442858 0.35482383 1.3850001 4294899697
0.054276194 0.35610479 1.3900001 4294901496
0.056923814 0.35610479 1.3900001 4294901499
0.05957143 0.35610479 1.3900001 4294901502
0.06221905 0.35610479 1.3900001 4294901502
0.064866677 0.35610479 1.3900001 4294901502
0.067514293 0.35610479 1.3900001 4294901500
0.07046476 0.35764191 1.396 4294172410
0.073123805 0.35764191 1.396 4293454584
0.075457148 0.35610479 1.3900001 4293386999
0.078104772 0.35610479 1.3900001 4293386228
0.080752388 0.35610479 1.3900001 4293254385
0.083400004 0.35610479 1.3900001 4293125363
0.086047627 0.35610479 1.3900001 4293848309
0.088695243 0.35610479 1.3900001 4294571511
0.091342859 0.35610479 1.3900001 4294704890
0.093990482 0.35610479 1.3900001 4294901500
0.096638106 0.35610479 1.3900001 4294901502
0.099285722 0.35610479 1.3900001 4294901502
0.10193334 0.35610479 1.3900001 4294901502
0.10458095 0.35610479 1.3900001 4294901502
0.10722858 0.35610479 1.3900001 4294901502
0.1098762 0.35610479 1.3900001 4294901502
0.11300953 0.35764191 1.396 4294901502
0.11566857 0.35764191 1.396 4294901502
0.11832762 0.35764191 1.396 4294901502
0.12098667 0.35764191 1.396 4294901502
0.12364572 0.35764191 1.396 4294901502
0.12684762 0.35917908 1.4020001 4294901502
0.12896381 0.35764191 1.396 4294901502
0.13218857 0.35917908 1.4020001 4294901502
0.13485906 0.35917908 1.4020001 4294901502
-0.37480286 0.16956857 0.65700001 4287004812
-0.37412003 0.16982667 0.65800005 4286676606
-0.37400001 0.17034286 0.66000003 4286610288
-0.37274286 0.17034286 0.66000003 4286610293
-0.37204856 0.17060095 0.66100001 4286544763
-0.37078953 0.17060095 0.66100001 4286479484
-0.3695305 0.17060095 0.66100001 4286347902
-0.36827141 0.17060095 0.66100001 4286281858
-0.3775619 0.17550476 0.68000001 4286019719
-0.37626669 0.17550476 0.68000001 4285822852
-0.37607431 0.17602095 0.68200004 4285356929
-0.37532476 0.17627905 0.68300003 4284897398
-0.37566671 0.17705333 0.68600005 4284766827
-0.37436002 0.17705333 0.68600005 4284702055
-0.37359715 0.17731145 0.68700004 4284701540
-0.37228858 0.17731145 0.68700004 4284767073
-0.37206 0.17782763 0.68900001 4284898398
-0.37128574 0.17808573 0.69000006 4284964443
-0.37050763 0.17834382 0.69100004 4284899161
-0.36919147 0.17834382 0.69100004 4284834139
-0.36894003 0.17886001 0.69300002 4284833374
-0.36761999 0.17886001 0.69300002 4284899163
-0.44422001 0.30171335 1.169 4285557622
-0.44199336 0.30171335 1.169 4285361259
-0.4427762 0.30377811 1.177 4285098336
-0.44352859 0.30584288 1.1850001 4284900967
-0.44127145 0.30584288 1.1850001 4284173935
-0.43753242 0.30481049 1.1810001 4283452756
-0.43380859 0.30377811 1.177 4281543226
-0.43156669 0.30377811 1.177 4279639098
-0.42932478 0.30377811 1.177 4280294715
-0.3661457 0.38017431 1.473 4281810247
-0.36334002 0.38017431 1.473 4282137422
-0.36371619 0.38352954 1.4860001 4282399321
-0.35942855 0.38198096 1.48 4282925924
-0.35492286 0.38017431 1.473 4283387235
-0.35211715 0.38017431 1.473 4283916387
-0.34788859 0.37862575 1.4670001 4284441201
-0.34509432 0.37862575 1.4670001 4284967808
-0.33950001 0.3755286 1.455 4285495169
-0.33534002 0.37398005 1.4490001 4285890946
-0.32982573 0.37088287 1.437 4286221447
-0.32572287 0.36933431 1.4310001 4286089100
-0.32435143 0.37088287 1.437 4285956480
-0.3216143 0.37088287 1.437 4286679668
-0.31887716 0.37088287 1.437 4287468695
-0.31614003 0.37088287 1.437 4287996859
-0.31340286 0.37088287 1.437 4288586161
-0.31066573 0.37088287 1.437 4288520615
-0.31050003 0.37398005 1.4490001 4288389799
-0.30774 0.37398005 1.4490001 4287537832
-0.30624288 0.3755286 1.455 4286748547
-0.30472288 0.37707716 1.4610001 4285163870
-0.30318001 0.37862575 1.4670001 4283651180
-0.30304763 0.38198096 1.48 4284636027
-0.30144572 0.38352954 1.4860001 4285685888
-0.29982096 0.38507813 1.4920001 4286022534
-0.29697907 0.38507813 1.4920001 4286416496
-0.29266191 0.38688478 1.4990001 4281806664
-0.28845334 0.38507813 1.4920001 4281937974
-0.28561145 0.38507813 1.4920001 4282003765
-0.28409621 0.38688478 1.4990001 4282331445
-0.28124097 0.38688478 1.4990001 4282662227
-0.14950477 0.24260955 0.94000006 4281939003
-0.14802858 0.24312572 0.94200003 4282463039
-0.14623429 0.24312572 0.94200003 4282925891
-0.14444 0.24312572 0.94200003 4283389010
-0.14310001 0.2439 0.94500005 4283847010
-0.14130001 0.2439 0.94500005 4284309082
-0.13994287 0.2446743 0.94800007 4282731602
-0.13813715 0.2446743 0.94800007 4281158994
-0.20924285 0.3755286 1.455 4280164178
-0.20562002 0.37398005 1.4490001 4279242571
-0.20286001 0.37398005 1.4490001 4282006852
-0.2001 0.37398005 1.4490001 4284831062
-0.19734001 0.37398005 1.4490001 4285028200
-0.1937743 0.37243143 1.4430001 4285225580
-0.19182001 0.37398005 1.4490001 4286014065
-0.18827716 0.37243143 1.4430001 4286803316
-0.18630002 0.37398005 1.4490001 4287130744
-0.18354 0.37398005 1.4490001 4287458185
-0.18152858 0.3755286 1.455 4288579482
-0.17949429 0.37707716 1.4610001 4289762979
-0.17671144 0.37707716 1.4610001 4289566125
-0.17392859 0.37707716 1.4610001 4289364392
-0.17255142 0.38017431 1.473 4289630883
-0.17055239 0.38198096 1.48 4289897391
-0.16841334 0.38352954 1.4860001 4290621884
-0.16625144 0.38507813 1.4920001 4291407290
-0.16340953 0.38507813 1.4920001 4291407544
0.038390476 0.3587524 1.3900001 4293056460
0.0410381 0.3587524 1.3900001 4291737288
0.043528572 0.35746193 1.3850001 4291148997
0.04616667 0.35746193 1.3850001 4290562770
0.048593335 0.35591334 1.3790001 4291610847
0.05122 0.35591334 1.3790001 4292724712
0.054080956 0.35746193 1.3850001 4292731634
0.05671905 0.35746193 1.3850001 4292738552
0.059357148 0.35746193 1.3850001 4293459454
0.06221905 0.3587524 1.3900001 4294115070
0.06463334 0.35746193 1.3850001 4294508286
0.067514293 0.3587524 1.3900001 4294901502
0.070161909 0.3587524 1.3900001 4294507262
0.072809525 0.3587524 1.3900001 4294178807
0.075457148 0.3587524 1.3900001 4293978864
0.078104772 0.3587524 1.3900001 4293845226
0.080461912 0.35746193 1.3850001 4293385701
0.083100006 0.35746193 1.3850001 4292991720
0.0857381 0.35746193 1.3850001 4293451756
0.088376194 0.35746193 1.3850001 4293977329
0.091014296 0.35746193 1.3850001 4294046198
0.09365239 0.35746193 1.3850001 4294180602
0.096290484 0.35746193 1.3850001 4294442750
0.098928578 0.35746193 1.3850001 4294704894
0.10156668 0.35746193 1.3850001 4294770430
0.10420477 0.35746193 1.3850001 4294901502
0.10722858 0.3587524 1.3900001 4294901502
0.1098762 0.3587524 1.3900001 4294901502
0.11252382 0.3587524 1.3900001 4294901502
0.11517143 0.3587524 1.3900001 4294901502
0.11781906 0.3587524 1.3900001 4294901502
0.12098667 0.36030096 1.396 4294901502
0.12364572 0.36030096 1.396 4294901502
0.12630476 0.36030096 1.396 4294901502
0.12896381 0.36030096 1.396 4294901502
0.13218857 0.36184955 1.4020001 4294901502
0.13485906 0.36184955 1.4020001 4294901502
-0.37537336 0.17108001 0.65800005 4287006091
-0.37525716 0.1716 0.66000003 4286676868
-0.37456667 0.17185999 0.66100001 4286478973
-0.37274286 0.1716 0.66000003 4286282364
-0.37204856 0.17185999 0.66100001 4286348156
-0.37078953 0.17185999 0.66100001 4286413692
-0.3695305 0.17185999 0.66100001 4286347388
-0.36827141 0.17185999 0.66100001 4286281852
-0.3775619 0.1768 0.68000001 4286019965
-0.37737337 0.17732 0.68200004 4285822588
-0.37662575 0.17758001 0.68300003 4285423995
-0.37697336 0.17836002 0.68600005 4285027953
-0.3762143 0.17862001 0.68700004 4284832615
-0.37490574 0.17862001 0.68700004 4284701540
-0.37359715 0.17862001 0.68700004 4284701538
-0.37228858 0.17862001 0.68700004 4284766815
-0.37206 0.17914 0.68900001 4284897629
-0.37128574 0.17940001 0.69000006 4285095260
-0.36997145 0.17940001 0.69000006 4284964442
-0.36865717 0.17940001 0.69000006 4284833372
-0.36787525 0.17966001 0.69100004 4284964445
-0.36655906 0.17966001 0.69100004 4285095516
-0.44422001 0.30394 1.169 4285426289
-0.44199336 0.30394 1.169 4285294948
-0.43156669 0.30602002 1.177 4278590766
-0.42932478 0.30602002 1.177 4279839031
-0.36895144 0.38298002 1.473 4281744969
-0.3661457 0.38298002 1.473 4282006863
-0.36334002 0.38298002 1.473 4282400853
-0.36053428 0.38298002 1.473 4282860377
-0.3577286 0.38298002 1.473 4283390814
-0.35347718 0.38142002 1.4670001 4283916387
-0.35068288 0.38142002 1.4670001 4284310887
-0.34504285 0.37830001 1.455 4284705907
-0.34086001 0.37674001 1.4490001 4285297790
-0.33250001 0.37050003 1.4250001 4285889155
-0.33117431 0.37206003 1.4310001 4286089609
-0.32844859 0.37206003 1.4310001 4286285450
-0.32435715 0.37050003 1.4250001 4285957004
-0.32164285 0.37050003 1.4250001 4285693581
-0.32027146 0.37206003 1.4310001 4287205006
-0.31887716 0.37362 1.437 4288715680
-0.31614003 0.37362 1.437 4288586162
-0.31340286 0.37362 1.437 4288520110
-0.31066573 0.37362 1.437 4288584874
-0.30921429 0.37518001 1.4430001 4288651941
-0.30774 0.37674001 1.4490001 4286750369
-0.30624288 0.37830001 1.455 4284840069
-0.30472288 0.37986001 1.4610001 4284242538
-0.30194002 0.37986001 1.4610001 4283653231
-0.30161428 0.38298002 1.473 4285292404
-0.30144572 0.38635999 1.4860001 4286937215
-0.29982096 0.38792002 1.4920001 4286747274
-0.29697907 0.38792002 1.4920001 4286610029
-0.29551718 0.38974002 1.4990001 4284039248
-0.28980669 0.38974002 1.4990001 4281743168
-0.28695142 0.38974002 1.4990001 4281939259
-0.28409621 0.38974002 1.4990001 4282135606
-0.28124097 0.38974002 1.4990001 4282336335
-0.15049049 0.24310002 0.93500006 4281611832
-0.14902762 0.24362001 0.93700004 4282265406
-0.14771429 0.24440002 0.94000006 4282923325
-0.14592382 0.24440002 0.94000006 4283127100
-0.14444 0.24492002 0.94200003 4283388229
-0.14310001 0.24570002 0.94500005 4283452750
-0.14130001 0.24570002 0.94500005 4283583567
-0.13950001 0.24570002 0.94500005 4282600527
-0.21201429 0.37830001 1.455 4281681490
-0.20924285 0.37830001 1.455 4280888148
-0.20647144 0.37830001 1.455 4280102731
-0.20286001 0.37674001 1.4490001 4282266434
-0.2001 0.37674001 1.4490001 4284500054
-0.19652286 0.37518001 1.4430001 4284900201
-0.1937743 0.37518001 1.4430001 4285356906
-0.19102572 0.37518001 1.4430001 4285749611
-0.18827716 0.37518001 1.4430001 4286211442
-0.18630002 0.37674001 1.4490001 4286868601
-0.18354 0.37674001 1.4490001 4287588746
-0.18152858 0.37830001 1.455 4288578970
-0.17949429 0.37986001 1.4610001 4289630625
-0.17671144 0.37986001 1.4610001 4289567401
-0.17464288 0.38142002 1.4670001 4289496734
-0.17255142 0.38298002 1.473 4289357716
-0.17055239 0.38480002 1.48 4289306791
-0.16841334 0.38635999 1.4860001 4290293434
-0.16703144 0.38974002 1.4990001 4291341496
0.033095241 0.36140004 1.3900001 4294438104
0.03574286 0.36140004 1.3900001 4294569937
0.038390476 0.36140004 1.3900001 4292858057
0.0410381 0.36140004 1.3900001 4291217860
0.043528572 0.36010003 1.3850001 4291281599
0.04616667 0.36010003 1.3850001 4291412424
0.048593335 0.35854 1.3790001 4291018961
0.05122 0.35854 1.3790001 4290626774
0.053846668 0.35854 1.3790001 4290623707
0.056473337 0.35854 1.3790001 4290626270
0.059357148 0.36010003 1.3850001 4292005346
0.061995246 0.36010003 1.3850001 4293388522
0.064353339 0.35854 1.3790001 4294114291
0.067271426 0.36010003 1.3850001 4294900984
0.069909528 0.36010003 1.3850001 4294901502
0.072547622 0.36010003 1.3850001 4294900474
0.075185724 0.36010003 1.3850001 4294636279
0.07782381 0.36010003 1.3850001 4294373364
0.080113336 0.35854 1.3790001 4293578481
0.082740009 0.35854 1.3790001 4292859890
0.085366666 0.35854 1.3790001 4293124338
0.087993339 0.35854 1.3790001 4293385714
0.090620004 0.35854 1.3790001 4293385201
0.093246669 0.35854 1.3790001 4293454066
0.095873341 0.35854 1.3790001 4293981939
0.098499998 0.35854 1.3790001 4294572792
0.10156668 0.36010003 1.3850001 4294704894
0.10420477 0.36010003 1.3850001 4294901502
0.10684286 0.36010003 1.3850001 4294901502
0.10948096 0.36010003 1.3850001 4294901502
0.11252382 0.36140004 1.3900001 4294901502
0.11517143 0.36140004 1.3900001 4294901502
0.11781906 0.36140004 1.3900001 4294901502
0.12098667 0.36296001 1.396 4294901502
0.12364572 0.36296001 1.396 4294901502
0.12630476 0.36296001 1.396 4294901502
0.12896381 0.36296001 1.396 4294901502
0.13218857 0.36452001 1.4020001 4294901502
0.13534001 0.36582002 1.4070001 4294901502
-0.37537336 0.17233334 0.65800005 4287072651
-0.37525716 0.17285714 0.66000003 4286739082
-0.37456667 0.17311905 0.66100001 4286544010
-0.37274286 0.17285714 0.66000003 4286347907
-0.37204856 0.17311905 0.66100001 4286413437
-0.37078953 0.17311905 0.66100001 4286478971
-0.3695305 0.17311905 0.66100001 4286413690
-0.36827141 0.17311905 0.66100001 4286348407
-0.37867239 0.17861906 0.68200004 4286216564
-0.37737337 0.17861906 0.68200004 4286150005
-0.37607431 0.17861906 0.68200004 4285490550
-0.37587428 0.17914286 0.68400002 4284830829
-0.37566671 0.17966667 0.68600005 4284701028
-0.37436002 0.17966667 0.68600005 4284570722
-0.37359715 0.17992857 0.68700004 4284636000
-0.37337241 0.18045239 0.68900001 4284701278
-0.37206 0.18045239 0.68900001 4284767069
-0.37128574 0.18071429 0.69000006 4284833116
-0.36997145 0.18071429 0.69000006 4284833628
-0.36919147 0.1809762 0.69100004 4284834396
-0.36787525 0.1809762 0.69100004 4284834141
-0.36655906 0.1809762 0.69100004 4284899677
-0.45002571 0.30407143 1.161 4285687681
-0.44781429 0.30407143 1.161 4285687679
-0.37175715 0.38578573 1.473 4281283922
-0.36895144 0.38578573 1.473 4281546833
-0.3661457 0.38578573 1.473 4281809750
-0.36334002 0.38578573 1.473 4282464860
-0.35906574 0.38421434 1.4670001 4283125082
-0.35627145 0.38421434 1.4670001 4283587673
-0.35203144 0.38264287 1.4610001 4284113506
-0.34924859 0.38264287 1.4610001 4284377452
-0.34362003 0.37950003 1.4490001 4284642164
-0.33803713 0.37635717 1.437 4285429885
-0.33390003 0.37478572 1.4310001 4286283142
-0.33117431 0.37478572 1.4310001 4286350224
-0.32707143 0.3732143 1.4250001 4286416270
-0.32435715 0.3732143 1.4250001 4286349197
-0.32164285 0.3732143 1.4250001 4286282650
-0.3189286 0.3732143 1.4250001 4287468712
-0.31754574 0.37478572 1.4310001 4288717480
-0.31482002 0.37478572 1.4310001 4288651433
-0.31209433 0.37478572 1.4310001 4288650667
-0.30936861 0.37478572 1.4310001 4288454829
-0.30921429 0.37792858 1.4430001 4288324516
-0.30774 0.37950003 1.4490001 4286348955
-0.30624288 0.38107142 1.455 4284439176
-0.30472288 0.38264287 1.4610001 4284308598
-0.30318001 0.38421434 1.4670001 4284243569
-0.30161428 0.38578573 1.473 4285955437
-0.30144572 0.3891905 1.4860001 4287733118
-0.29861525 0.3891905 1.4860001 4286284431
-0.29578477 0.3891905 1.4860001 4284837738
-0.29413715 0.39076191 1.4920001 4283514694
-0.29266191 0.39259523 1.4990001 4282202184
-0.28980669 0.39259523 1.4990001 4282136394
-0.28695142 0.39259523 1.4990001 4282136129
-0.28409621 0.39259523 1.4990001 4282201144
-0.28124097 0.39259523 1.4990001 4282272844
-0.15227143 0.24488097 0.93500006 4281743403
-0.15049049 0.24488097 0.93500006 4282005558
-0.14902762 0.24540478 0.93700004 4282530625
-0.14771429 0.2461905 0.94000006 4283121467
-0.14592382 0.2461905 0.94000006 4282996021
-0.14444 0.24671429 0.94200003 4282928696
-0.14310001 0.2475 0.94500005 4282862395
-0.14174858 0.24828573 0.94800007 4282861636
-0.14023809 0.24880952 0.95000005 4282336589
-0.21201429 0.38107142 1.455 4281876306
-0.20924285 0.38107142 1.455 4281480535
-0.20647144 0.38107142 1.455 4281084492
-0.20286001 0.37950003 1.4490001 4282265153
-0.2001 0.37950003 1.4490001 4283513942
-0.19734001 0.37950003 1.4490001 4284572267
-0.19458002 0.37950003 1.4490001 4285685096
-0.19182001 0.37950003 1.4490001 4285881701
-0.18906002 0.37950003 1.4490001 4286078320
-0.18630002 0.37950003 1.4490001 4286803579
-0.18429999 0.38107142 1.455 4287588491
-0.18152858 0.38107142 1.455 4288579227
-0.17949429 0.38264287 1.4610001 4289629600
-0.17671144 0.38264287 1.4610001 4289629349
-0.17464288 0.38421434 1.4670001 4289694869
-0.17255142 0.38578573 1.473 4289357189
-0.17055239 0.38761905 1.48 4289044127
-0.16841334 0.3891905 1.4860001 4290161337
-0.16703144 0.39259523 1.4990001 4291275959
-0.1641762 0.39259523 1.4990001 4291210165
0.033095241 0.36404765 1.3900001 4294437077
0.03574286 0.36404765 1.3900001 4294567886
0.038390476 0.36404765 1.3900001 4292924615
0.0410381 0.36404765 1.3900001 4291282624
0.043528572 0.36273813 1.3850001 4291412666
0.04616667 0.36273813 1.3850001 4291478974
0.048593335 0.36116666 1.3790001 4291216323
0.05122 0.36116666 1.3790001 4290953923
0.053846668 0.36116666 1.3790001 4291018692
0.056473337 0.36116666 1.3790001 4291083461
0.059100002 0.36116666 1.3790001 4291742663
0.061726671 0.36116666 1.3790001 4292399831
0.064353339 0.36116666 1.3790001 4292462056
0.066980004 0.36116666 1.3790001 4292524531
0.069606669 0.36116666 1.3790001 4293322238
0.072547622 0.36273813 1.3850001 4294115070
0.074860007 0.36116666 1.3790001 4293983998
0.077486672 0.36116666 1.3790001 4293852926
0.080113336 0.36116666 1.3790001 4293852926
0.082740009 0.36116666 1.3790001 4293852923
0.085057147 0.35985714 1.3740001 4293979897
0.08767429 0.35985714 1.3740001 4294106867
0.090291433 0.35985714 1.3740001 4294106605
0.092908576 0.35985714 1.3740001 4294106602
0.095525712 0.35985714 1.3740001 4293779176
0.098142862 0.35985714 1.3740001 4293451763
0.10076001 0.35985714 1.3740001 4294180606
0.10375334 0.36116666 1.3790001 4294901502
0.10684286 0.36273813 1.3850001 4294901502
0.10948096 0.36273813 1.3850001 4294901502
0.11211905 0.36273813 1.3850001 4294901502
0.11517143 0.36404765 1.3900001 4294901502
0.11781906 0.36404765 1.3900001 4294901502
0.12098667 0.36561903 1.396 4294901502
0.12364572 0.36561903 1.396 4294901502
0.12630476 0.36561903 1.396 4294901502
0.12951809 0.36719048 1.4020001 4294901502
0.13218857 0.36719048 1.4020001 4294901502
0.13485906 0.36719048 1.4020001 4294901502
-0.37525716 0.17411429 0.66000003 4286805641
-0.37513337 0.17464192 0.66200006 4286609287
-0.37330765 0.1743781 0.66100001 4286478463
-0.37261146 0.17464192 0.66200006 4286544247
-0.37078953 0.1743781 0.66100001 4286609784
-0.3695305 0.1743781 0.66100001 4286544762
-0.38108572 0.18044572 0.68400002 4286478966
-0.37867239 0.17991811 0.68200004 4286478707
-0.37792668 0.18018191 0.68300003 4286477682
-0.37662575 0.18018191 0.68300003 4285557362
-0.37697336 0.18097335 0.68600005 4284701287
-0.3762143 0.18123715 0.68700004 4284569692
-0.37490574 0.18123715 0.68700004 4284439388
-0.37522858 0.18202859 0.69000006 4284570717
-0.37391433 0.18202859 0.69000006 4284701787
-0.37260005 0.18202859 0.69000006 4284636249
-0.37128574 0.18202859 0.69000006 4284570970
-0.36997145 0.18202859 0.69000006 4284703068
-0.36919147 0.18229239 0.69100004 4284834142
-0.36787525 0.18229239 0.69100004 4284769120
-0.36655906 0.18229239 0.69100004 4284703072
-0.45067906 0.30522764 1.1570001 4285752951
-0.44847524 0.30522764 1.1570001 4285622397
-0.44781429 0.30628288 1.161 4285556345
-0.44560283 0.30628288 1.161 4285425012
-0.42791143 0.30628288 1.161 4280094755
-0.42716667 0.30733812 1.1650001 4280360491
-0.42494765 0.30733812 1.1650001 4280952628
-0.37024289 0.38700861 1.4670001 4281086290
-0.3674486 0.38700861 1.4670001 4281349457
-0.3661457 0.38859144 1.473 4281677143
-0.36186004 0.38700861 1.4670001 4282529117
-0.35906574 0.38700861 1.4670001 4283389792
-0.35481429 0.38542572 1.4610001 4283850339
-0.35203144 0.38542572 1.4610001 4284376426
-0.34638003 0.38226005 1.4490001 4284509554
-0.34219715 0.38067716 1.4430001 4284642429
-0.33662575 0.37751144 1.4310001 4285629320
-0.33250001 0.37592858 1.4250001 4286677645
-0.32978573 0.37592858 1.4250001 4286611858
-0.32707143 0.37592858 1.4250001 4286545545
-0.32435715 0.37592858 1.4250001 4286741633
-0.32164285 0.37592858 1.4250001 4286942102
-0.3189286 0.37592858 1.4250001 4287797930
-0.31754574 0.37751144 1.4310001 4288717993
-0.31482002 0.37751144 1.4310001 4288782503
-0.31209433 0.37751144 1.4310001 4288848813
-0.30936861 0.37751144 1.4310001 4288391091
-0.30664289 0.37751144 1.4310001 4287992215
-0.30774 0.38226005 1.4490001 4286013052
-0.30624288 0.38384286 1.455 4284111217
-0.30597433 0.38700861 1.4670001 4284437607
-0.30318001 0.38700861 1.4670001 4284836729
-0.30161428 0.38859144 1.473 4286685836
-0.30022857 0.39043808 1.48 4288519044
-0.2974095 0.39043808 1.48 4285756028
-0.29578477 0.39202097 1.4860001 4283065182
-0.2929543 0.39202097 1.4860001 4282924864
-0.29129526 0.39360383 1.4920001 4282859074
-0.28845334 0.39360383 1.4920001 4282596933
-0.28561145 0.39360383 1.4920001 4282398783
-0.28409621 0.3954505 1.4990001 4282266937
-0.15450001 0.24455145 0.92700005 4281347637
-0.15322858 0.24534287 0.93000007 4281677367
-0.15145716 0.24534287 0.93000007 4282005817
-0.15000762 0.24587047 0.93200004 4282399548
-0.14870952 0.24666193 0.93500006 4282859072
-0.14724286 0.24718954 0.93700004 4283320636
-0.14592382 0.24798095 0.94000006 4282864953
-0.14444 0.24850859 0.94200003 4282464823
-0.1435543 0.25009143 0.94800007 4282263350
-0.14204763 0.25061905 0.95000005 4282137412
-0.14023809 0.25061905 0.95000005 4282139475
-0.21288858 0.38542572 1.4610001 4282138961
-0.21010572 0.38542572 1.4610001 4282138704
-0.20732287 0.38542572 1.4610001 4282135617
-0.20370001 0.38384286 1.455 4282327346
-0.2001 0.38226005 1.4490001 4282529613
-0.19815715 0.38384286 1.455 4284310121
-0.19458002 0.38226005 1.4490001 4286078566
-0.19182001 0.38226005 1.4490001 4286012515
-0.18906002 0.38226005 1.4490001 4286012272
-0.18630002 0.38226005 1.4490001 4286804349
-0.18429999 0.38384286 1.455 4287590026
-0.18152858 0.38384286 1.455 4288579735
-0.17949429 0.38542572 1.4610001 4289629091
-0.17671144 0.38542572 1.4610001 4289766575
-0.17464288 0.38700861 1.4670001 4289893021
-0.17255142 0.38859144 1.473 4289356683
-0.17055239 0.39043808 1.48 4288846497
-0.16841334 0.39202097 1.4860001 4290029496
-0.16703144 0.3954505 1.4990001 4291275190
-0.1641762 0.3954505 1.4990001 4291141813
0.033095241 0.36669526 1.3900001 4294501591
0.03574286 0.36669526 1.3900001 4294631118
0.038390476 0.36669526 1.3900001 4292991173
0.0410381 0.36669526 1.3900001 4291411652
0.043528572 0.3653762 1.3850001 4291478211
0.04616667 0.3653762 1.3850001 4291610308
0.048593335 0.36379337 1.3790001 4291414725
0.051034287 0.36247429 1.3740001 4291282885
0.05365143 0.36247429 1.3740001 4291413446
0.056268577 0.36247429 1.3740001 4291545031
0.058885716 0.36247429 1.3740001 4291480008
0.061502859 0.36247429 1.3740001 4291481295
0.064120002 0.36247429 1.3740001 4290821079
0.066737145 0.36247429 1.3740001 4290232025
0.069354288 0.36247429 1.3740001 4291743195
0.072233334 0.36379337 1.3790001 4293318631
0.074588574 0.36247429 1.3740001 4293321204
0.077205718 0.36247429 1.3740001 4293387764
0.079822861 0.36247429 1.3740001 4294109939
0.082440004 0.36247429 1.3740001 4294898679
0.085057147 0.36247429 1.3740001 4294901242
0.08767429 0.36247429 1.3740001 4294900728
0.090291433 0.36247429 1.3740001 4294834677
0.092502862 0.36089143 1.368 4294766065
0.095108569 0.36089143 1.368 4293573101
0.09771429 0.36089143 1.368 4292405237
0.10032 0.36089143 1.368 4293656318
0.10337715 0.36247429 1.3740001 4294901502
0.10638 0.36379337 1.3790001 4294901502
0.10900667 0.36379337 1.3790001 4294901502
0.11211905 0.3653762 1.3850001 4294901502
0.11475715 0.3653762 1.3850001 4294901502
0.11781906 0.36669526 1.3900001 4294901502
0.12098667 0.36827812 1.396 4294901502
0.12364572 0.36827812 1.396 4294901502
0.12630476 0.36827812 1.396 4294901502
0.12896381 0.36827812 1.396 4294901502
0.13218857 0.36986098 1.4020001 4294901502
0.13485906 0.36986098 1.4020001 4294901502
0.19843905 0.3954505 1.4990001 4294901492
0.20129429 0.3954505 1.4990001 4294901484
0.20319621 0.39360383 1.4920001 4294901445
0.2060381 0.39360383 1.4920001 4294901407
-0.37537336 0.17484002 0.65800005 4287204491
-0.37525716 0.17537144 0.66000003 4286806919
-0.37456667 0.17563714 0.66100001 4286543748
-0.37330765 0.17563714 0.66100001 4286281850
-0.37204856 0.17563714 0.66100001 4286413169
-0.3713505 0.17590287 0.66200006 4286544245
-0.37008953 0.17590287 0.66200006 4286609530
-0.38108572 0.18174857 0.68400002 4286674550
-0.37922764 0.18148287 0.68300003 4286478195
-0.37848002 0.18174857 0.68400002 4286281072
-0.37662575 0.18148287 0.68300003 4285557102
-0.37587428 0.18174857 0.68400002 4284834145
-0.3762143 0.18254572 0.68700004 4284701268
-0.37490574 0.18254572 0.68700004 4284635991
-0.37359715 0.18254572 0.68700004 4284701787
-0.37228858 0.18254572 0.68700004 4284767576
-0.37206 0.18307714 0.68900001 4284767573
-0.36967146 0.18254572 0.68700004 4284833112
-0.36836284 0.18254572 0.68700004 4284833884
-0.36919147 0.18360859 0.69100004 4284833888
-0.36787525 0.18360859 0.69100004 4284768356
-0.36655906 0.18360859 0.69100004 4284768611
-0.45067906 0.30743143 1.1570001 4285817976
-0.44847524 0.30743143 1.1570001 4285621114
-0.44627145 0.30743143 1.1570001 4285358963
-0.44406763 0.30743143 1.1570001 4285228140
-0.42864096 0.30743143 1.1570001 4279307058
-0.42791143 0.3084943 1.161 4279964726
-0.42570001 0.3084943 1.161 4280622645
-0.42348856 0.3084943 1.161 4281149493
-0.42127714 0.3084943 1.161 4281675315
-0.41762191 0.30743143 1.1570001 4282331186
-0.41541812 0.30743143 1.1570001 4283055921
-0.4132143 0.30743143 1.1570001 4282398513
-0.37275717 0.38661429 1.455 4281019724
-0.37151146 0.3882086 1.4610001 4281216337
-0.36872858 0.3882086 1.4610001 4281478737
-0.3674486 0.38980287 1.4670001 4281808978
-0.3646543 0.38980287 1.4670001 4282136152
-0.36038002 0.3882086 1.4610001 4283124830
-0.35612857 0.38661429 1.455 4284047973
-0.35335717 0.38661429 1.455 4284441965
-0.35058573 0.38661429 1.455 4284901490
-0.34638003 0.38502002 1.4490001 4285230968
-0.3407743 0.38183144 1.437 4285625989
-0.33380288 0.37704858 1.419 4286155155
-0.33109999 0.37704858 1.419 4286678675
-0.32839715 0.37704858 1.419 4286414228
-0.32707143 0.37864286 1.4250001 4286217861
-0.32435715 0.37864286 1.4250001 4287202934
-0.32028857 0.37704858 1.419 4288192913
-0.3189286 0.37864286 1.4250001 4288455853
-0.31754574 0.38023716 1.4310001 4288784297
-0.31350002 0.37864286 1.4250001 4288850598
-0.31209433 0.38023716 1.4310001 4288982447
-0.30936861 0.38023716 1.4310001 4287535033
-0.30921429 0.38342571 1.4430001 4286021771
-0.30774 0.38502002 1.4490001 4285291870
-0.30624288 0.38661429 1.455 4284569947
-0.30472288 0.3882086 1.4610001 4285294936
-0.30318001 0.38980287 1.4670001 4286085506
-0.30161428 0.39139715 1.473 4286618540
-0.30022857 0.39325714 1.48 4287142539
-0.2974095 0.39325714 1.48 4285164650
-0.29459047 0.39325714 1.48 4283258962
-0.2929543 0.39485145 1.4860001 4283056186
-0.29012382 0.39485145 1.4860001 4282924349
-0.28845334 0.39644575 1.4920001 4282465089
-0.28561145 0.39644575 1.4920001 4282071613
-0.15416668 0.24578573 0.92500007 4281413694
-0.15273428 0.24631716 0.92700005 4281677378
-0.15145716 0.24711432 0.93000007 4282135623
-0.14968573 0.24711432 0.93000007 4282659395
-0.14823239 0.24764572 0.93200004 4283058495
-0.14692858 0.24844287 0.93500006 4283521854
-0.1454581 0.24897429 0.93700004 4282334269
-0.14413334 0.24977143 0.94000006 4281148983
-0.14310001 0.25110003 0.94500005 4281410609
-0.14204763 0.25242859 0.95000005 4281675333
-0.14023809 0.25242859 0.95000005 4282732889
-0.21288858 0.3882086 1.4610001 4283716945
-0.21010572 0.3882086 1.4610001 4283057226
-0.20647144 0.38661429 1.455 4282400566
-0.20370001 0.38661429 1.455 4282071075
